ply
format ascii 1.0
comment Created by Open3D
element vertex 1961
property double x
property double y
property double z
end_header
-0.201721 -18.776 395.553
17.4854 -29.9483 397.216
13.4868 -11.0126 395.559
30.4445 -15.0053 398.503
41.478 -41.7151 393.097
36.7648 -31.1983 396.081
12.5871 -12.8712 395.643
26.4145 -23.0005 397.948
39.0878 20.4331 396.541
26.2793 -3.02535 398.391
27.409 -13.9121 398.008
50.1323 -37.7054 396.959
22.5041 -7.99419 397.856
32.4828 -36.9351 396.457
31.161 -4.91595 398.191
34.5146 -42.9921 396.552
51.5922 15.0435 398.454
46.457 23.0122 398.219
47.4772 -41.9949 397.388
40.9597 -23.7081 399.483
3.48629 -21.1898 396.756
48.5714 -37.9953 397.525
44.5774 5.62017 398.621
39.0724 0.432421 399.173
38.3701 -43.1755 395.652
13.7742 1.38693 396.972
29.4931 -33.8889 397.887
49.7437 -38.9297 397.131
0.103933 -10.2153 392.398
33.2262 -36.9919 396.453
18.4837 -15.997 397.572
32.46 -33.9733 396.474
47.0973 -45.5219 400.793
41.5417 10.4046 394.236
40.4917 -40.9768 392.939
47.0853 -30.1376 397.199
43.3893 -41.1993 393.449
34.4506 -40.9875 396.508
12.395 -28.0499 397.518
23.7701 10.1032 398.41
37.5363 -42.9518 395.803
42.9201 -25.6269 400.447
19.4417 -25.9629 397.478
7.02635 -14.6384 394.166
26.4232 -32.9133 397.769
13.6398 -28.69 397.04
31.4743 -40.9463 396.741
4.36977 -9.76996 391.248
36.6023 15.1316 396.982
48.4345 14.853 394.486
35.6475 -32.0468 395.865
36.4146 -36.8993 392.744
2.49518 -20.2681 395.566
1.37036 2.87783 395.235
34.4205 17.0596 397.476
41.4985 -25.9277 398.712
33.06 -41.3274 396.302
48.5964 -33.8846 397.508
29.4864 -16.0385 398.159
12.4303 -26.9292 397.018
47.4319 19.7202 394.96
40.4765 -44.0403 396.769
26.2755 -8.70333 398.066
26.4555 -35.9569 397.72
14.4811 5.05152 397.617
35.6234 -23.3614 398.262
-2.5184 -13.9014 394.786
35.6658 -40.7564 393.997
44.4423 -32.906 393.776
34.1278 -36.2446 394.449
6.77289 -9.27685 391.285
44.3355 -40.7984 393.83
52.4568 15.069 398.524
18.1634 -23.9892 397.303
30.4842 -40.9192 397.861
14.479 7.00148 397.556
42.4467 20.7693 394.131
43.2888 -41.6387 393.922
41.673 21.7254 396.454
49.5577 15.2235 395.646
3.59088 -13.6363 392.02
16.5558 -18.8351 397.417
34.7274 -35.9234 393.163
6.57081 -7.66008 391.286
48.3898 -36.9571 397.241
33.4194 -36.0013 396.083
31.445 -36.9349 396.449
18.5165 -17.9397 397.393
1.11438 -8.47037 391.373
42.5147 -35.9762 393.135
37.4715 -43.9894 396.7
36.2218 18.8991 397.304
38.4531 -39.9525 392.846
-0.711091 -5.82035 394.765
23.9724 1.87178 398.353
14.5196 10.0371 397.646
25.4394 9.30303 398.414
33.3901 -25.9345 398.24
31.5144 -27.9138 398.108
43.4239 -27.8449 397.603
17.4895 -7.95654 395.983
23.9739 5.16407 398.377
27.449 -16.9412 398.046
50.1592 -37.2128 397.172
25.487 -18.8877 397.907
4.33958 -21.2549 396.697
45.1893 -35.0329 393.198
38.4546 -38.9395 392.861
47.4926 10.4821 397.174
28.7025 -18.0845 398.323
45.382 -29.321 397.254
25.384 -1.92659 398.118
46.9126 -40.7311 397.474
20.4543 3.1032 397.956
28.5073 -12.9202 398.47
41.5098 -34.8883 393.131
42.5143 -34.9395 393.12
15.4332 -14.8997 395.698
29.5759 -3.80781 398.449
-0.563811 -15.9649 394.803
43.5416 -34.8611 393.398
15.4684 -27.8331 397.354
43.5431 -34.9316 393.124
15.5033 -27.9041 397.205
44.6044 -34.9301 393.412
25.6235 -10.8868 398.432
46.2147 -35.2929 394.438
45.5239 15.2954 394.336
24.5573 -20.9387 397.828
49.505 20.9451 398.408
32.3908 -35.1311 396.252
40.4361 -31.9869 393.138
28.4707 -33.895 397.958
26.4325 -18.8988 397.96
36.512 -30.8347 396.667
23.5192 -29.9662 397.648
21.4637 -19.9008 397.616
36.5353 4.12256 398.876
33.9757 -35.1775 395.049
14.8474 -12.6749 396.429
8.44435 -14.0159 393.834
24.3939 4.10663 398.095
40.3485 10.7319 394.626
31.4148 17.1165 398.802
42.3766 -26.0842 398.926
29.6162 18.8526 398.852
25.4964 -34.9171 397.672
25.5051 -30.986 397.808
15.509 -28.9413 397.164
29.4958 -34.9197 397.924
49.3644 -40.0592 397.173
0.912031 -8.87265 391.285
4.39376 -20.2 395.433
38.4561 -33.8682 392.878
31.4399 10.1097 398.666
16.5149 -27.8764 397.136
31.3175 -35.1837 396.268
11.0626 -5.05371 392.905
47.5486 -34.8929 397.385
15.4509 -29.6456 397.204
31.1785 -30.024 398.414
33.64 -38.014 395.902
44.5674 4.86854 399.455
48.6336 -34.8117 397.278
28.4803 -16.9432 398.092
24.5615 -36.8943 397.897
29.4739 -31.9338 397.92
44.6571 -40.1835 393.518
5.57752 -2.41296 392.498
21.5841 -34.7033 397.799
34.387 -20.3089 398.236
43.3132 -27.2546 398.04
40.5016 -29.9185 397.015
46.3233 -29.8858 397.262
16.4812 -18.8926 397.223
19.4256 -10.8466 397.586
9.30115 -13.6532 393.934
14.5183 -29.0527 397.513
9.54586 -14.0467 395.081
24.5634 -12.9283 397.928
35.5243 -1.00951 398.689
24.5698 -32.0114 397.754
38.2889 -31.18 394.814
34.6651 -23.1078 398.28
45.3561 -44.725 397.147
1.34707 -3.86682 393.753
47.3756 -34.7763 397.225
8.53054 -16.8319 395.259
29.3902 -18.8663 397.968
34.8538 -3.28917 400.449
50.0002 -34.8175 397.539
14.58 -29.5968 397.514
13.4345 -26.9463 397.031
29.677 -40.551 398.057
19.4047 -17.021 397.508
17.5663 1.04712 397.721
45.5543 21.5162 396.373
46.4598 -41.0605 397.113
11.563 -16.9205 395.56
25.512 -24.9151 397.825
30.5295 -24.8252 398.118
39.4766 -33.873 392.935
43.3037 21.6704 395.451
24.5338 -32.9402 397.599
48.1245 -35.4814 397.31
49.8993 -38.0216 397.203
23.5294 2.08485 398.109
42.7798 -33.9513 393.45
41.5667 -28.9209 397.395
34.344 -26.8963 398.214
18.265 -20.4995 397.28
44.4695 -33.9005 393.516
12.4372 1.8197 395.964
23.5381 12.077 398.183
46.6756 -34.5488 397.205
50.5241 -34.7585 398.432
28.5112 9.07689 398.524
36.1058 -25.9002 398.289
19.5451 -29.8323 397.233
13.4943 -5.90827 395.779
9.45542 2.97902 395.824
30.6415 -34.0021 396.969
12.0893 -8.00413 393.296
34.6181 -29.0898 396.9
20.4532 1.04761 397.936
16.6283 -25.1033 397.398
25.4633 -16.0556 397.894
35.5514 -30.9188 396.694
22.5109 -25.0021 397.662
31.44 -33.9775 396.522
20.6246 -27.0656 397.278
14.3983 -7.936 395.808
42.5853 -28.9679 397.211
18.5022 -20.9659 397.478
44.3359 -33.9765 393.193
33.8603 -34.2469 396.086
32.4326 4.1381 398.653
23.5162 -33.8641 397.596
44.5373 -41.7208 395.826
24.5326 -33.8788 397.567
18.1501 -7.91838 396.117
8.50846 -21.9107 396.824
25.5202 -33.9007 397.697
46.3152 10.4249 395.005
39.554 22.0044 397.796
51.3827 15.0946 398.251
37.7004 -35.3409 393.461
47.4543 -33.0248 397.382
49.4129 -33.9174 397.534
35.6927 -28.286 397.127
1.53249 -17.9309 394.939
35.0259 -33.4718 395.388
34.3203 -32.8982 396.515
23.8257 -37.0781 398.48
46.42 -36.7676 394.595
45.1213 16.7229 394.378
45.9471 10.971 394.472
43.5358 -36.1631 393.12
46.5698 -33.7772 397.177
45.5397 -45.1746 397.735
7.60376 -2.73113 392.443
45.544 8.98437 397.901
48.5362 12.1448 395.648
4.14601 -11.501 391.322
31.3886 -15.7587 398.469
18.4181 -22.9609 397.263
34.4958 -19.8234 398.451
17.4536 -23.9851 397.235
-0.422502 1.94137 395.072
48.9844 19.3252 397.627
7.39522 -16.8942 395.228
25.2115 2.90102 398.426
9.62742 6.88706 397.228
42.4632 -33.0405 393.207
42.659 -32.699 393.461
47.6354 8.25033 398.369
-0.460926 -13.8683 394.898
29.95 -15.6225 398.497
43.5374 -32.8882 393.564
35.5515 -43.0056 396.598
27.4362 -12.9513 398.109
35.5378 4.14012 398.841
45.3294 -36.9415 393.193
4.81908 -22.5252 396.816
33.4928 -32.9581 396.579
7.58147 -12.8139 391.294
41.5209 -36.9213 393.076
19.1898 -28.7095 397.311
32.7822 -39.8886 396.242
44.473 15.0807 394.049
29.1149 -25.6975 398.335
21.4615 -28.9341 397.577
34.4049 19.121 397.652
37.6498 -41.9394 393.783
11.547 -14.8958 395.595
25.5229 -32.9654 397.708
42.6831 -25.9113 399.52
44.4766 17.1173 394.08
46.5573 15.063 394.176
33.3991 -22.0104 398.191
28.4825 -13.9629 398.124
31.4491 -32.9809 396.639
39.6075 5.38324 399.371
25.4854 -22.9966 397.881
13.7195 -25.9771 397.367
45.7386 -32.7512 397.381
39.5611 13.0364 393.777
46.5543 -33.0573 397.42
25.4596 -8.991 398.015
31.5253 2.04447 398.607
48.5487 -32.9665 397.503
19.3993 -32.984 397.661
9.93049 -20.2452 396.318
26.4079 -27.9264 397.847
47.5176 -37.8114 397.211
40.5035 -32.8682 393.053
13.4206 -20.9017 397.125
11.2861 8.32877 397.203
33.9552 14.996 397.195
24.5523 -31.0009 397.747
45.1372 -28.3561 398.111
37.4476 -32.8588 392.942
21.4579 -32.9327 397.508
29.1865 -0.843794 398.19
34.3094 -22.0774 398.245
12.4105 -22.95 397.074
24.5602 -19.9137 397.875
46.4954 -32.0358 397.418
2.54034 -1.01426 395.175
0.513171 2.14389 395.409
25.3837 7.97676 398.148
8.77625 4.38114 397.35
30.6762 -39.9007 396.832
37.4653 -26.5815 398.37
16.6347 -2.0519 396.731
39.469 4.1419 399.014
30.5178 8.07095 398.656
46.5499 14.2794 394.401
38.4468 -28.89 396.971
32.246 -21.0447 398.166
40.4649 -28.9014 397.005
35.5257 -44.7205 396.865
49.3263 -32.9993 397.781
36.489 -28.8821 396.863
30.5096 -22.9716 398.126
17.3595 -11.9193 395.815
33.5309 -21.0225 398.248
46.5175 14.0575 394.127
49.8945 -33.3098 398.335
29.3273 -15.2082 398.426
35.4254 -32.5937 395.574
42.6703 -38.178 393.378
32.4239 -2.86181 398.546
44.5204 -39.0528 393.142
24.5503 -29.9712 397.714
32.4115 -39.9095 396.449
6.41022 -16.1395 395.404
36.4746 -41.8986 394.932
26.4391 -29.9583 397.78
24.6606 4.88988 398.391
21.4825 8.03644 397.965
26.425 -31.0258 397.847
46.0683 -44.5067 397.275
36.7221 -32.2097 393.868
19.4171 -2.85618 397.762
37.7177 -32.1914 393.218
-1.52745 -2.93826 394.982
17.369 -27.9429 397.184
38.3874 11.934 395.756
23.5389 -6.96889 397.98
1.49184 -13.9449 394.993
33.4956 -30.9124 396.612
33.5731 -27.9611 398.342
19.765 -33.5452 397.872
2.74187 -13.6767 392.854
48.1244 -33.2241 397.309
51.3805 20.9163 398.445
30.0894 -34.6875 397.619
2.74099 2.04349 395.386
34.304 -23.7389 398.268
19.5019 -32.082 397.397
47.6378 -37.117 397.245
-1.53614 -13.9029 394.827
20.4942 -32.0231 397.402
42.3346 9.44985 396.898
26.4638 -6.92948 398.202
41.5139 -45.8729 396.976
16.5363 1.04699 397.653
30.5413 11.1202 398.624
22.4854 -32.0102 397.526
-3.56605 -5.89391 394.818
31.2958 -31.8985 397.529
17.9629 -13.1167 397.406
31.6484 -32.0505 396.936
39.4298 -25.9216 398.618
35.5563 -29.8984 396.748
34.5178 -31.9347 396.588
4.61649 -3.81966 391.227
8.42472 -17.9315 395.425
25.4802 -27.9232 397.802
4.69187 -8.84553 391.461
26.4673 -24.0032 397.859
10.5613 -23.9676 396.945
38.6526 -0.127456 399.705
15.4989 -26.8266 397.385
11.5207 -18.9384 395.744
43.2903 9.25194 397.202
32.5215 -29.0135 398.104
34.4495 -27.9683 398.063
49.0237 -32.1466 397.946
19.5966 -30.961 397.235
47.5771 -33.9932 397.39
15.3622 -28.6466 397.387
32.4306 3.10844 398.629
20.0093 -30.657 397.284
18.5995 -31.8835 397.225
34.4972 11.1758 397.77
5.43275 -21.9055 396.73
28.515 -2.8081 398.219
28.4678 -31.939 397.918
19.4081 -19.8988 397.577
34.5239 -21.9616 398.366
44.7738 -31.7571 397.441
47.4633 23.0658 398.385
44.1804 4.29867 399.221
37.2437 -31.4996 395.625
34.5117 21.0277 398.754
39.5403 -31.1834 393.57
43.5449 -28.0019 397.253
40.5355 -31.1135 393.787
15.7204 -0.758746 396.757
41.4853 -31.1938 393.7
29.4603 -14.3144 398.369
43.0317 -31.3111 393.897
23.5482 5.98352 398.138
41.5426 20.6937 394.138
12.5694 -11.9748 395.621
30.549 -31.0061 398.034
47.4397 7.07419 397.998
16.8368 11.7218 397.474
48.3272 -34.0432 397.29
6.4797 -17.9904 395.212
45.4778 -31.0237 397.382
46.3467 -31.0129 397.243
48.5578 -35.9266 397.497
39.5615 14.0536 393.78
24.5607 -11.8993 397.883
0.104232 -11.3625 393.525
16.6875 -2.64145 396.364
33.4706 9.08215 398.755
25.4772 -28.947 397.754
21.241 -26.7588 397.292
37.4506 -1.42812 400.571
47.5043 -31.0416 397.517
30.5362 -29.9995 398.09
17.6473 -30.8925 397.234
26.2409 -25.2922 398.432
20.4026 -12.8924 397.646
38.3705 -0.765058 400.023
47.5717 -33.015 397.263
41.03 1.05356 400.168
23.5263 -21.9628 397.767
38.5743 17.0931 393.912
41.4186 -30.8955 394.761
18.5766 -29.9674 397.361
42.4248 -30.9329 395.826
28.4021 -1.91669 398.198
18.611 -26.7809 397.366
32.273 -30.7105 397.534
-3.54838 -13.0117 394.742
10.5518 -14.8659 395.541
25.537 -36.9895 397.726
9.40724 -13.1092 392.786
14.4629 -27.8749 397.115
34.3351 -3.70264 400.43
30.4306 -35.9079 396.827
49.2644 -31.9057 398.785
20.4558 7.00899 397.985
44.857 -30.8751 397.45
35.4123 -37.9265 392.878
25.4672 4.97214 398.216
33.4066 -26.8443 398.343
16.6018 -30.6751 397.252
2.57553 -0.980686 395.351
24.6373 -15.9994 397.898
13.4661 -15.9105 395.665
39.2038 -30.4812 396.333
13.4346 -23.973 397.035
2.55307 -14.8748 395.036
43.7826 -38.7829 393.331
15.5132 9.05932 397.75
36.3932 20.1519 397.547
40.6743 -31.6552 393.397
42.6916 -30.5601 397.358
31.6331 -17.1431 398.439
36.3994 -32.6533 393.578
34.0904 -33.6584 396.382
53.1 16.0727 398.459
45.1732 -33.2477 393.942
36.4453 -0.987902 398.686
19.462 -29.9752 397.446
14.8474 -11.2416 396.429
12.5431 -1.02918 395.911
25.2094 -0.967668 398.393
9.70012 3.43459 396.663
13.4892 -16.9405 395.628
22.4865 -29.9585 397.545
-3.56649 -7.93411 394.867
22.5077 -6.96783 397.919
35.534 2.07984 398.797
30.2616 -40.0172 397.724
35.7364 9.24243 397.898
35.0097 -28.5195 397.522
34.5249 -29.8926 396.67
5.39262 -19.9259 395.152
42.5509 -29.8644 397.386
48.5284 -34.885 397.417
34.8069 -33.2534 395.219
31.5768 -29.0105 398.136
41.2562 3.01095 399.357
0.511052 -12.0572 393.811
38.9367 18.9015 394.147
37.4118 -29.9073 396.867
27.4396 -28.9583 397.91
30.5469 1.0059 398.511
21.4762 -4.91171 397.848
34.1293 20.249 398.631
39.4376 -29.8849 396.797
25.3715 0.0200113 398.065
3.5984 2.1161 395.441
45.5633 9.64399 396.451
48.5393 13.0967 394.65
35.5039 -40.9863 394.742
31.8322 -32.9355 396.306
29.1061 -13.3491 398.216
2.7303 -4.3245 391.199
2.50564 1.03081 395.215
14.5269 -20.9965 397.461
-0.507327 0.0198818 394.97
44.7943 -29.8925 397.35
9.50517 1.04165 395.656
12.4097 -23.9738 397.048
42.3346 -42.6181 394.984
39.4799 -40.9798 392.968
35.564 -28.8801 396.834
33.3061 -29.6895 397.611
40.5208 21.1332 395.772
41.2449 -43.5761 396.276
19.5987 -32.606 397.28
34.3669 -28.7104 397.76
14.4493 -19.7972 397.369
23.4854 1.01733 398.12
46.908 -34.6715 397.435
4.48623 -1.00121 395.398
22.4958 -28.9437 397.709
30.5806 -17.8975 398.166
27.4525 -18.8967 398.097
36.4797 -29.8994 396.762
23.5208 -28.9412 397.675
24.5485 -28.9422 397.687
26.4071 -28.9529 397.836
30.1528 -38.9254 397.553
33.9525 -29.3144 397.164
29.2306 1.87123 398.231
34.5438 -40.8978 396.105
22.516 -34.8551 397.594
38.8846 1.25771 399.362
18.5946 -11.9005 397.432
43.4219 -29.0219 397.092
9.46581 5.94407 397.219
-4.38412 -14.4664 395.028
42.6928 8.66094 398.327
24.4645 15.0676 398.408
26.4626 -16.9157 397.985
24.5639 -13.9563 397.935
45.522 8.03473 397.88
-2.75419 -16.9294 395.369
21.4689 -17.9541 397.713
2.60267 -12.8596 391.762
10.5497 -13.9252 395.461
23.5143 -34.8882 397.565
9.4082 -11.9142 391.616
21.7637 13.1899 398.41
42.3843 -28.9186 397.364
47.6197 11.8412 394.614
16.6383 -20.8982 397.413
41.9544 -39.7989 393.333
20.4191 -28.7067 397.272
-6.0178 -5.89847 395.125
26.445 -24.9153 397.891
26.7997 -5.00719 398.436
10.5235 -25.0143 396.864
38.588 -0.66953 400.566
18.2833 -27.8832 397.233
18.5372 -27.8947 397.396
29.6084 -2.24934 399.442
36.5438 -21.9938 398.485
35.4238 -27.8722 397.875
18.5617 -32.681 397.775
20.431 -27.9022 397.503
-6.22625 -6.71954 395.402
17.3967 -25.9758 397.199
22.492 -27.9121 397.643
27.4353 -34.9128 397.846
16.5453 -26.91 397.252
31.1273 -5.54527 399.078
23.5192 -27.9123 397.647
20.4536 4.13077 397.944
50.0612 -33.5922 398.024
32.4627 -16.8171 398.517
3.60974 -8.82296 391.189
23.4944 -24.914 397.681
28.4703 -27.9338 397.953
32.2372 -28.1337 398.359
4.39705 -8.90389 391.179
15.4457 -2.02552 396.019
33.3778 -27.9486 398.165
37.3113 14.0138 395.53
6.61046 -10.9328 391.241
19.412 -11.8927 397.658
21.4706 -11.8952 397.743
25.495 -11.9038 398.032
42.4233 13.0411 393.914
43.4553 17.116 394.048
12.4088 -24.9974 397.019
36.4097 12.053 397.118
26.4261 -11.9236 398.122
47.7513 16.1941 394.397
35.4621 -42.1097 396.639
27.2509 -12.0571 398.155
-3.56619 -10.9926 394.838
22.4955 5.06292 398.087
2.55335 -11.6988 391.176
11.196 -11.7333 394.03
13.4381 -22.9536 397.137
38.2405 19.2338 395.746
0.914187 -11.6284 392.209
-6.01761 -11.0002 395.112
-5.50375 -10.9928 394.848
17.5538 4.11243 397.826
34.6966 -41.7357 396.292
-4.58455 -10.9894 394.722
-1.52668 -10.9913 394.792
25.759 -2.10632 398.406
-0.67291 -11.0552 394.797
-0.244452 -10.9072 393.86
0.660287 -10.8341 391.869
1.3168 -10.8831 391.464
1.73709 -10.9094 391.246
2.51066 -10.9049 391.084
33.8393 21.3744 399.461
23.5395 -2.85786 397.99
7.10519 -2.4154 392.894
5.60471 -11.0274 391.25
8.39531 -10.9009 391.547
3.8698 -2.42263 394.071
6.53607 5.11679 397.367
18.827 -9.01248 397.449
10.4061 -10.8896 391.743
10.8507 -11.3353 392.581
39.4894 -34.8991 393.062
11.2611 -10.9345 392.75
44.0011 -45.6195 397.137
21.4741 -9.02062 397.81
32.4689 -34.9669 396.462
30.3577 -5.92994 398.748
43.441 19.1317 393.995
6.43716 0.0198765 395.49
48.8636 9.07217 398.317
45.4209 14.4804 394.326
11.5441 -11.0641 393.756
30.2067 -5.60253 398.264
45.5033 14.0289 394.081
12.6065 -11.0423 395.671
-1.52678 -8.95248 394.805
14.3944 -11.0081 395.701
27.594 5.83325 398.408
26.3669 8.82181 398.159
16.4667 -11.0243 395.979
17.4534 -11.0063 395.97
-6.18969 -6.91545 394.931
15.4421 -5.91045 395.927
26.4388 -11.5008 398.314
18.7134 -10.8985 397.494
20.4422 -10.8674 397.72
21.4707 -10.8681 397.746
22.5032 -10.8707 397.84
-3.5666 -6.91472 394.882
26.3262 -11.2908 398.165
11.0921 -10.6647 392.154
30.6294 -6.17411 399.753
17.916 -11.0352 396.368
47.2771 18.9819 394.155
-0.0988998 -10.6378 393.031
25.9195 -10.736 396.663
2.9334 -10.4908 391.336
-6.22828 -10.2968 395.531
-6.13851 -9.97736 395.013
-5.55618 -9.93038 394.624
1.79083 -4.29904 391.952
20.42 -25.9378 397.29
-3.56565 -9.97136 394.776
-2.54666 -9.97336 394.854
-1.52714 -9.97437 394.894
0.543366 -9.86635 391.664
24.4484 3.12715 398.1
26.4729 6.01085 398.246
34.7664 -37.9202 393.112
27.4921 3.24754 398.213
38.5051 8.02846 397.573
1.31672 -10.0132 391.428
27.3889 -5.91457 398.168
1.61327 -9.82266 391.243
2.54478 -9.87977 391.152
4.65214 -9.94904 391.393
6.5914 -11.9449 391.416
20.2154 -24.8099 397.301
29.5255 4.14571 398.555
5.39828 -9.80168 391.26
7.58143 -10.1865 391.292
4.50463 -1.00074 395.202
8.39535 -9.88979 391.549
9.40887 -9.89227 391.647
3.47668 -4.96991 391.231
16.537 9.05739 397.669
10.4191 -9.89114 391.603
42.3619 -36.888 393.344
12.3514 -9.98152 395.183
26.516 -3.96028 398.201
17.505 -28.8678 397.177
13.4937 -9.9962 395.761
15.4434 -10.0012 395.96
17.4886 -10.0013 395.961
18.7935 -9.9402 397.609
17.3999 -4.92008 396.038
19.4153 -9.94312 397.725
49.5911 22.9387 398.451
30.1417 8.0434 398.311
22.5039 -9.94629 397.853
31.4623 7.04952 398.691
42.4845 25.0076 398.014
23.5298 -9.94563 397.827
24.5674 -9.94978 397.992
25.465 -9.97987 398.023
25.839 -9.79287 398.582
40.4427 3.08216 399.035
2.12527 -9.88617 391.404
12.7522 -6.90428 395.746
9.70061 -15.4969 395.292
33.4603 1.04951 398.631
-40.3792 -8.65495 349.812
36.1382 -42.3601 396.388
14.8474 -9.80832 396.429
50.6031 16.2698 398.244
26.235 -9.63899 399.596
9.68358 6.01784 397.386
22.5025 -32.9843 397.483
26.4921 -9.66872 399.117
-6.22032 -8.9574 395.022
3.28707 4.43345 397.438
-6.00379 -9.34609 394.205
-5.52519 -8.95861 394.65
-3.56578 -8.95222 394.792
-2.54682 -8.95405 394.873
-0.914358 -9.25175 394.522
36.4137 -31.7574 395.797
51.5486 18.1426 398.53
28.4713 -25.8792 397.966
49.2432 -39.7584 397.396
0.473015 -8.88104 391.655
34.831 -38.5656 393.187
38.3417 6.68883 398.812
30.6503 -15.8468 398.385
2.49253 -8.89481 391.1
0.914036 -5.14512 392.145
6.56489 -8.85924 391.435
27.4417 -27.9328 397.94
7.48488 -8.87814 391.527
27.2684 -25.7024 398.411
33.4637 0.0200745 398.672
9.40909 -8.88109 391.656
16.5375 5.97659 397.679
5.56034 -9.27692 391.288
10.4199 -8.88056 391.632
11.333 -8.85487 391.909
47.567 18.1289 394.389
12.8321 -9.0471 395.702
13.494 -8.97438 395.769
36.3861 -44.8806 396.86
34.9876 18.1794 397.272
14.4175 -8.97654 395.868
15.4418 -8.97779 395.92
10.6741 -4.84699 392.612
33.0398 15.0462 398.527
16.4666 -8.97907 395.976
17.4912 -8.98007 396.021
41.4668 21.1324 394.791
12.1509 -11.618 395.302
19.4309 -9.018 397.694
6.74019 3.08241 395.293
20.4441 -9.0194 397.758
43.1377 25.5511 398.636
22.5046 -9.02185 397.865
0.512902 -2.93968 395.174
23.5361 -9.02341 397.933
28.5094 13.999 398.5
12.0879 -9.12033 393.25
25.3409 8.9434 398.22
26.2565 -9.14314 398.671
-40.3792 -7.75156 349.812
2.93365 -8.57135 391.369
22.9472 0.843161 398.415
34.508 7.02416 398.842
22.942 12.5698 398.325
10.6696 4.18889 397.455
8.55749 -15.8985 395.407
31.4085 14.024 398.723
12.0962 -8.61847 393.521
33.3483 12.0193 398.832
-5.52726 -7.92295 394.794
-2.54711 -7.93538 394.929
-1.52716 -7.93463 394.892
24.5513 -27.9183 397.732
-0.754695 -7.93652 393.858
-0.281514 -7.83037 392.733
13.4442 -19.2702 397.318
0.877972 -7.82507 391.114
44.4671 13.0437 393.996
1.51865 -8.16711 391.371
39.5271 8.02755 397.526
40.852 8.86902 398.432
1.5179 -7.76411 391.168
30.898 -17.1936 398.336
2.56469 -7.8504 391.156
22.5132 0.0200507 398.017
4.42079 -8.02678 391.249
4.65219 -7.73444 391.396
3.58341 -6.04191 391.197
18.4967 -24.0012 397.501
5.52882 -7.88778 391.442
15.9098 -0.595774 397.393
7.48405 -7.86619 391.485
38.6049 11.1956 397.016
48.5455 10.9006 398.098
9.41005 -7.87043 391.696
5.66969 -9.93981 391.394
11.326 -7.8965 391.875
11.8314 -7.88861 392.603
12.094 -7.83788 393.45
13.4927 -7.95152 395.732
44.1988 -41.6245 395.236
30.5882 -1.00896 398.469
20.4426 -7.99164 397.729
4.4204 4.27513 396.746
24.5494 -8.01377 397.978
11.8953 -6.58721 393.598
4.54627 -15.8573 395.369
50.5558 12.969 398.432
27.3585 -7.87216 397.925
-0.0987033 -8.08415 392.25
2.26007 -7.93206 391.41
0.206809 0.0198827 395.347
21.4863 4.13171 398.036
-0.914211 -7.62031 394.459
36.2175 11.1512 397.258
28.0503 -7.58265 397.826
44.4733 16.0984 394.051
-5.56939 -6.93961 394.788
3.524 -12.9317 391.535
21.51 13.9869 398.157
40.4839 -30.5711 395.841
-4.58518 -6.9129 394.779
-2.58398 -6.89624 394.888
-1.52704 -6.91451 394.874
-0.856349 -6.82244 394.604
-0.556702 -6.89425 393.715
-0.185877 -6.90761 392.829
39.6708 -42.4964 393.856
0.56348 -6.88669 391.712
1.57096 -6.85996 391.151
1.35024 -6.81979 391.392
2.5193 -6.86722 391.17
11.9593 -5.60077 395.716
37.2036 17.0028 395.623
43.4571 18.1343 394.064
4.58956 -6.95171 391.228
10.414 -13.4536 395.244
16.6048 -24.0027 397.243
5.58254 -6.81373 391.427
16.447 -23.9794 397.403
5.4791 -7.01291 391.261
8.39671 -6.85741 391.612
35.5417 5.99476 398.884
9.40865 -6.85783 391.636
14.4439 -24.983 397.062
46.4122 10.2422 395.834
10.0063 -7.25572 391.277
5.43627 -14.2963 392.755
37.5006 5.06782 398.902
10.4395 -6.84265 391.733
15.3606 -1.08901 396.045
12.0996 -7.09596 393.631
13.4935 -6.92992 395.753
22.5166 7.01064 398.076
15.4431 -6.93342 395.954
8.10206 -13.5469 392.035
16.4661 -6.93357 395.962
45.5239 7.00751 397.897
10.5248 -16.9383 395.576
18.1874 -7.01355 396.148
18.4518 -6.94989 396.882
18.7645 -6.89581 397.719
30.559 5.98211 398.611
41.4807 9.0367 397.71
19.4122 -6.96337 397.661
44.4882 -42.9281 396.907
30.4873 -1.00837 398.218
34.499 0.0200572 398.738
21.4748 -6.9661 397.822
34.1578 -38.8763 394.796
36.4247 -33.866 392.854
48.3786 7.23249 398.102
24.5535 -6.95293 398.046
27.4902 -6.96143 398.173
28.4299 -6.90196 398.073
0.103949 -6.66951 392.459
2.63043 -6.651 391.369
37.6383 17.0908 394.749
3.20348 -6.5842 391.404
29.2035 -6.66325 398.142
4.51397 -4.13786 391.464
31.4425 -34.9765 396.442
29.6735 -6.57344 398.929
-4.58475 -5.89283 394.743
-1.52705 -5.89507 394.894
-0.302613 -5.93062 393.869
35.5338 1.04999 398.795
0.347331 -5.82153 392.688
1.59005 -5.98392 391.18
37.8998 14.2355 394.126
4.43445 -5.92796 391.296
6.57344 -5.96247 391.444
6.57051 -5.84091 391.268
7.48553 -5.9464 391.56
9.41956 -5.92429 391.69
10.4403 -5.86511 391.76
11.0805 -5.9749 392.104
28.3085 0.065724 398.247
47.6368 19.0777 394.629
11.3447 -5.80334 392.834
12.5919 -5.89145 395.793
42.4423 6.98589 397.732
14.4171 -5.90942 395.856
16.4711 -5.91282 396.083
18.0968 -6.01171 395.845
18.2726 -6.19523 396.701
10.5985 -11.945 392.629
18.6618 -5.89792 397.588
35.396 8.99711 398.746
21.4789 -5.93991 397.899
22.506 -5.93975 397.889
-0.0989441 -6.27605 393.207
1.47525 0.0198728 395.203
21.1027 -32.1261 397.265
23.5386 -5.94105 397.975
6.46801 -5.43554 391.181
13.0328 9.4592 397.29
26.5973 14.8703 398.223
30.5084 18.0991 398.666
8.18761 -11.7021 391.286
24.5526 -5.92473 398.03
25.4742 -5.96243 398.091
19.4273 7.00876 397.971
43.5052 9.90211 394.5
9.38956 5.09814 397.248
28.5369 -5.98176 398.404
47.5492 10.005 398.015
29.4633 -5.93386 398.41
29.5879 -5.92217 398.241
1.31678 -5.7861 391.471
47.5302 18.1263 394.205
46.4776 -30.0205 397.46
30.917 -6.18341 400.358
0.104189 -5.66903 393.363
1.51981 -4.98736 391.693
1.78715 -5.36775 391.15
37.9828 13.4605 394.283
2.59557 -5.11011 391.189
37.4739 -40.9704 393.04
13.4977 0.0199291 395.876
4.52734 -5.08181 391.397
8.43469 -17.0048 395.424
4.59924 -4.93058 391.189
29.5424 5.06345 398.552
5.38677 -5.23457 391.261
6.59426 -4.95894 391.534
7.48531 -5.03619 391.55
8.38663 -4.98128 391.57
18.488 -3.88249 397.662
-5.81675 -5.28902 395.331
-5.48701 -4.85273 394.803
-4.58557 -4.87425 394.812
-3.56644 -4.87483 394.861
26.4038 15.0829 398.405
-2.54679 -4.87501 394.875
43.45 15.0789 394
42.3682 7.20055 397.212
37.4962 8.03035 397.668
7.57586 5.12635 397.135
25.3967 8.08688 398.425
-0.0991997 -5.27419 394.223
0.71272 -4.99481 392.842
2.35627 -4.83213 391.402
11.6841 -4.80178 395.762
14.4178 -4.88734 395.875
26.876 -11.3059 398.695
15.444 -4.8886 395.976
9.6527 7.8222 397.521
16.4716 -4.89007 396.095
30.5397 6.99305 398.602
17.8744 -4.84481 396.582
52.6298 12.9506 398.016
18.524 -4.87572 397.702
22.5054 -4.91209 397.879
23.5453 -4.91469 398.088
6.57555 -4.0252 391.569
35.4981 10.8943 397.244
24.5336 -4.94072 398.025
25.4334 -4.88499 398.065
37.0562 18.1362 397.45
26.2942 -4.88182 398.201
13.8599 -20.9199 397.47
27.4435 -4.88646 398.18
38.5188 -46.405 397.716
28.4625 -4.91643 398.227
28.2996 1.02768 398.154
32.4212 -37.835 396.476
30.5665 -4.91954 398.484
-4.79818 -2.15914 395.53
32.5004 -4.8969 399.993
37.2899 13.1132 396.782
27.4524 -21.957 397.972
3.76748 -10.9213 391.369
42.4554 15.0776 393.966
-6.01959 -5.08369 395.243
10.5951 3.2434 396.815
10.8734 -4.65364 393.403
42.5646 -40.0027 393.34
24.594 11.9327 398.422
32.2151 -4.59645 399.02
10.6657 8.01379 397.565
3.43144 -10.8789 391.183
42.2726 15.2981 394.406
30.8064 -36.7195 396.276
2.51114 -3.98585 391.688
40.1902 0.382144 400.554
3.36141 -4.12211 391.163
34.5422 -38.8526 393.832
38.589 7.11533 397.882
48.3786 7.01911 398.558
3.62484 -3.97723 391.531
26.5384 6.99166 398.458
7.51037 -4.02555 391.601
6.41097 3.08419 395.52
43.4768 20.0483 394.155
21.4802 1.04764 397.924
10.0313 -4.43747 392.256
-5.41701 -3.93311 394.81
27.4319 -2.81547 398.224
-4.58612 -3.85513 394.862
31.4826 -4.85778 398.683
-3.56606 -3.85473 394.822
6.36056 -1.98611 394.965
5.45195 4.94189 397.061
13.4139 8.01829 397.527
-2.54698 -3.85554 394.905
-1.52731 -3.85588 394.941
-0.507324 -3.85607 394.96
0.466138 -3.80898 394.894
31.4736 3.12746 398.553
0.850776 -4.18718 394.124
10.6653 -3.72735 395.732
16.49 -21.7495 397.154
10.1823 -4.17377 392.871
11.5524 -3.86409 395.782
13.4311 5.96448 397.437
45.6306 19.8803 394.379
12.5574 -3.86403 395.778
24.457 6.03232 398.163
13.472 -3.86464 395.836
8.39495 -7.86707 391.529
35.1501 -2.45365 399.116
49.4462 11.1141 398.117
31.4364 18.9503 398.815
50.5636 14.0057 398.203
14.3902 -3.893 395.886
17.2321 -3.95968 396.05
17.5623 -3.80625 396.856
30.4446 -1.85176 398.236
18.3789 -10.039 396.717
20.4489 -3.88431 397.852
21.4813 -3.88518 397.942
16.4464 -2.98017 396.036
22.5142 -3.88605 398.034
23.5428 -3.8862 398.045
27.3515 6.12742 398.239
24.5553 -3.90358 398.074
27.5756 -3.96673 398.391
27.4115 -3.85146 398.204
11.5523 0.0198932 395.777
38.4158 -44.8927 396.743
28.5463 -3.84371 398.376
49.3551 19.2469 398.132
30.5491 -3.90759 398.481
16.5385 8.03114 397.704
31.4917 -3.89038 398.472
-4.5411 -2.96016 394.883
32.3822 -3.8499 398.54
49.5565 15.9589 395.636
33.5585 -3.96534 399.801
24.5465 8.91392 398.395
5.20523 -3.81919 391.18
37.8555 18.7931 395.934
26.2722 7.05876 398.214
23.6975 12.9819 398.342
51.6851 13.0225 398.44
-5.00081 -2.7371 395.395
32.4231 -3.9111 398.256
49.4224 -37.9511 397.499
37.4725 10.1072 397.511
23.5025 13.9168 398.234
34.3692 -3.66881 399.967
1.27635 -3.49582 394.591
2.13278 -3.63199 392.788
11.9431 -18.146 395.18
1.8678 -3.37143 393.953
8.48301 0.0199064 395.636
28.5749 3.09728 398.457
23.5487 7.01185 398.145
35.3783 11.1691 397.414
10.5617 -21.9183 396.961
4.58243 -3.05094 391.821
8.47412 -3.02219 392.645
23.5058 -0.998996 398.026
9.26305 -3.35995 392.609
-5.20013 -3.14253 395.023
9.37302 -16.7203 395.254
-2.54671 -2.93735 394.86
11.5455 -17.9673 395.545
1.53264 -2.92689 394.986
9.62699 -2.82482 395.765
42.3369 -41.6039 393.112
36.4931 10.0061 397.279
12.5539 -2.96057 395.81
29.3105 2.95083 398.198
14.38 -2.93853 395.829
15.4458 -2.94598 396.02
19.4104 -7.98949 397.624
17.083 -3.25297 396.041
17.1967 -2.97202 396.777
24.4456 6.83994 398.4
20.4475 -2.85666 397.823
21.4814 -2.85754 397.945
22.5089 -2.85751 397.941
30.9548 -3.47623 398.184
49.0517 18.6565 396.511
8.31709 -25.2313 397.474
45.5207 -32.8884 396.972
24.5343 -2.8488 398.091
47.6779 6.12176 400.453
28.4907 -2.88506 398.407
29.246 -2.96104 398.022
48.8647 8.24943 398.325
30.6542 -2.85998 398.287
31.1681 -2.79136 398.282
33.4586 -2.85368 398.611
35.3879 -2.77779 399.899
50.6615 13.9807 398.392
3.63971 -2.79133 392.771
10.957 -2.94902 396.429
33.4299 -3.06557 398.27
29.5533 9.06971 398.584
35.263 -2.97854 400.398
1.12562 -2.83867 395.319
2.40579 -2.71841 394.798
3.30664 -2.67424 393.662
8.43782 -2.7242 393.528
2.40849 2.07581 395.228
4.26158 -2.61679 392.663
51.3015 10.3909 398.396
5.87973 -2.61484 392.371
6.69025 -2.6148 392.364
-4.39974 -2.17277 394.907
-3.54945 -2.03661 394.862
13.5938 9.81106 397.692
-2.5469 -2.01979 394.897
-0.50738 -2.11672 394.96
0.30889 -2.43031 395.32
1.66196 -1.94577 395.402
1.47341 -2.05721 395.167
2.57292 -2.02079 395.103
52.3762 12.9848 398.432
4.77305 -2.41625 393.033
5.48605 -11.7555 391.23
10.5279 -2.02387 395.692
12.475 -2.02472 395.868
13.3976 -2.02516 395.943
49.8658 12.6657 398.105
5.4309 -21.2835 396.594
24.1848 -2.44963 398.463
47.4631 13.9939 394.123
9.40217 -5.02151 391.716
17.5633 -1.93116 397.655
46.5442 8.01961 397.981
24.4834 10.1718 398.409
16.502 -25.9858 397.238
18.4858 -1.93102 397.617
7.0453 0.632284 395.229
46.1876 9.95328 396.537
49.1114 13.4967 395.343
19.4188 -1.93188 397.797
20.4516 -1.93242 397.904
22.5078 -1.93249 397.922
9.6572 -3.83301 392.603
23.5392 -1.93277 397.985
27.4775 -1.98937 398.231
31.3682 -1.8722 398.211
17.5384 10.0724 397.9
33.4357 -1.94119 398.597
35.5311 -1.93658 398.765
50.4533 12.9925 398.144
16.8613 -1.78699 397.567
26.4248 -1.81476 398.103
27.4426 -1.83185 398.38
42.2917 5.03566 399.072
18.1595 -12.4949 397.217
36.2259 -1.78336 399.045
36.6557 -1.79699 399.798
4.39324 -1.71596 395.385
33.8411 -1.83132 398.268
10.6866 -20.1874 396.523
36.7039 -1.84078 400.325
5.82371 -1.6141 395.448
11.7986 -9.0047 392.636
-3.53044 -1.03729 394.979
19.4097 -13.9449 397.611
-2.54738 -1.00012 394.964
-0.546215 -0.932159 394.979
14.1184 0.63365 396.083
1.54437 -0.979304 395.224
35.5143 -22.9375 398.461
1.50001 -1.06914 395.338
39.4534 2.08108 399.03
3.56131 -1.0416 395.221
43.4509 16.0967 394.008
6.42919 -1.0016 395.526
6.56267 -10.8868 391.402
5.41593 -1.00147 395.498
7.45331 -1.40902 395.215
8.48285 -1.0018 395.629
9.50602 -1.00194 395.692
42.3951 8.04922 397.715
24.4359 13.9777 398.243
10.5301 -1.00218 395.772
36.65 14.1406 396.943
50.2614 18.0021 398.214
13.4496 -0.97444 395.831
14.3922 -0.974706 395.938
16.1427 -1.26089 396.811
16.6034 -0.957965 397.62
30.7557 9.07112 398.27
10.4562 -2.92566 395.71
18.4932 -1.0073 397.775
21.4778 -1.00751 397.878
27.3957 -1.03096 398.102
0.5395 0.0198645 395.14
41.5644 1.96621 399.629
22.5201 12.0499 398.139
2.42351 -14.1495 394.725
13.4355 -25 397.061
27.6211 -0.950036 398.41
30.5152 9.07822 398.583
28.6152 -1.02476 398.43
13.2395 -27.8902 397.333
4.52962 1.12607 395.402
29.6449 -1.06384 398.454
31.2996 -0.974047 398.21
17.4732 11.1191 397.942
43.487 -43.8799 396.977
31.6052 -1.00936 398.606
32.3923 -18.8483 398.159
36.8439 -1.01204 399.601
37.589 -1.03329 399.842
3.59659 -0.939872 395.359
23.9734 -1.11164 398.369
30.1536 -6.58832 399.833
24.4879 -0.957303 398.371
0.921504 -1.0011 395.348
6.63831 -1.001 395.306
34.8539 20.7869 398.088
27.6032 -12.0411 398.49
40.4726 18.1218 393.792
37.2973 -0.804192 398.931
18.2657 -16.704 397.295
48.162 12.2318 394.883
24.5024 9.89399 398.272
-3.31349 -0.337251 395.094
-1.52721 0.0198799 394.916
1.84073 0.019898 395.419
37.1973 16.156 395.459
3.63915 -0.0115384 395.373
4.59588 -0.00563583 395.247
4.42718 0.0368929 395.373
40.5165 8.00836 397.545
32.4554 -1.00907 398.494
5.05476 -0.184261 395.212
31.9912 -1.21425 398.285
24.5424 -34.8902 397.588
5.484 0.0588097 395.498
12.3963 6.96443 397.479
7.45961 0.0198589 395.548
10.5294 0.019893 395.748
30.4791 14.0227 398.687
49.7924 11.9531 398.34
14.3523 -0.0414359 396.042
-1.48081 -4.91249 394.907
34.5073 8.05398 398.835
15.0452 -0.389393 396.245
15.2459 -0.133675 396.807
7.48363 -6.85477 391.461
15.6462 0.122667 397.542
8.4061 -5.88165 391.639
18.4943 0.0200283 397.8
5.3904 -18.9802 395.126
21.4812 0.0200268 397.941
23.5639 0.0106455 398.089
18.4949 5.05406 397.812
24.5106 0.0405728 398.071
28.6082 -0.00565593 398.442
29.724 -0.0361069 398.477
44.4894 7.0064 397.835
18.1862 -8.90565 396.122
30.6072 0.0102257 398.504
31.4711 0.0200437 398.554
20.452 0.0200372 397.912
32.4196 0.0200709 398.494
35.5338 0.020086 398.796
47.7203 14.2282 394.393
-1.5971 -17.8153 395.392
43.4332 -26.951 398.619
32.7645 -21.9681 398.397
36.5492 0.0372312 398.732
-1.36436 -17.7098 395.012
36.8293 -0.392535 399.442
46.424 17.0485 394.37
37.5074 0.0417423 398.801
3.50377 -5.86159 391.42
39.4692 -0.000508655 400.689
11.7564 -6.21274 393.486
-3.26742 -0.0822285 395.705
0.521282 -2.00377 395.09
22.5314 0.0200259 398.339
24.7253 -0.0485444 398.328
25.833 -0.0828694 398.489
26.3623 -0.0211315 398.402
44.286 -30.9989 397.137
18.487 10.0688 397.863
31.4786 0.0200341 398.306
17.4926 12.0363 397.914
25.4826 -10.873 397.925
23.4278 0.0886508 398.424
38.0066 -43.4132 396.657
39.6853 0.226739 400.155
-0.524321 -4.85849 394.913
1.54216 1.02258 395.144
14.7565 0.327372 396.736
0.529893 1.04883 395.141
27.233 2.03554 398.195
3.47413 0.81119 395.366
16.4012 -15.89 397.01
5.47359 1.02168 395.449
19.419 1.04736 397.801
28.6684 4.07734 398.462
8.48203 1.04151 395.591
7.36626 -14.9116 395.108
42.4243 19.1452 393.924
12.4761 1.04231 395.901
14.2738 0.891164 396.848
14.6247 1.19325 397.531
40.5113 -33.8898 393.129
15.5071 1.04676 397.594
18.4961 1.04746 397.837
22.501 1.05671 398.105
24.4704 1.02246 398.086
24.4892 1.15178 398.393
17.5685 7.00523 397.771
25.3848 1.02646 398.086
27.4981 1.12603 398.385
40.4841 21.3778 396.843
41.5469 -43.9841 396.879
27.4117 0.911195 398.168
25.5411 -35.9008 397.705
29.6237 1.10327 398.479
32.4285 1.04939 398.603
32.4496 17.1191 398.862
34.5162 1.05838 398.738
38.5036 20.9909 397.734
37.4978 1.05013 398.872
30.5477 5.05763 398.522
28.5444 -4.91866 398.413
39.4206 1.1375 399.073
25.5061 -20.9483 397.823
37.8678 16.1023 394.146
39.6494 0.804336 399.585
37.4875 16.1073 394.722
40.623 0.822133 400.742
43.4786 23.0387 398.065
25.4087 12.0202 398.291
0.104726 0.836763 395.391
43.6928 21.6608 395.275
10.3122 -15.0872 395.256
6.5015 0.972583 395.262
23.8098 1.17233 398.386
34.0501 0.842931 398.306
16.7574 -16.1703 397.416
5.10609 1.14264 395.236
25.2591 1.30602 398.365
20.4476 -5.9388 397.825
6.43734 2.06265 395.505
30.4467 1.09997 398.263
43.7377 -42.1824 395.682
31.1649 1.04849 398.241
42.5525 -44.8711 397.018
-1.7333 1.31328 395.397
43.3506 4.16715 399.46
24.1927 -37.4488 398.592
36.7562 17.6289 396.429
40.251 1.41151 399.104
32.3186 -35.7957 396.246
49.4085 14.2526 395.542
20.4375 -15.9993 397.629
-1.32252 1.65079 394.709
26.4948 11.072 398.427
50.0657 22.9915 398.879
1.57489 1.81677 395.339
3.50675 1.89105 395.206
6.46156 4.32596 396.988
4.50406 2.06243 395.458
5.45112 2.05364 395.474
9.50623 2.06373 395.697
0.434661 -4.83583 393.761
11.5533 -1.00225 395.81
10.5321 2.06448 395.848
8.38734 -14.7939 395.144
16.4435 -3.84906 396.062
11.5303 2.02942 395.938
12.9923 1.65642 396.055
28.5396 5.99952 398.443
13.2626 1.79708 396.999
46.3621 -35.8451 394.536
45.7311 16.1114 394.367
13.5295 2.18702 397.481
26.4545 16.0764 398.549
27.4877 17.1081 398.607
26.4181 -34.8868 397.744
27.4521 10.1335 398.499
14.5377 2.01468 397.559
18.4964 2.07486 397.844
19.4194 2.07469 397.809
20.4502 2.0751 397.878
21.4804 2.0753 397.928
24.4726 2.0763 398.122
3.50723 0.0539028 395.261
25.4747 2.17347 398.188
42.6751 -42.3468 394.738
26.4205 2.12934 398.426
41.5741 -24.7371 399.439
29.6115 2.12981 398.512
30.6181 2.08791 398.547
32.4438 2.0697 398.572
33.4611 2.07904 398.642
34.5023 2.07973 398.776
6.66071 -19.934 395.423
36.5432 2.07967 398.759
40.4464 2.01187 398.943
8.45988 5.06923 397.216
30.2054 2.0084 398.247
5.00457 2.16357 395.279
-1.52714 -2.01986 394.906
12.4026 2.30017 396.821
40.6594 2.25997 399.428
12.7654 2.41518 397.483
42.2666 2.42734 399.484
31.4121 15.0554 398.768
16.7903 -4.07461 396.375
11.779 2.47763 396.529
30.5231 10.1093 398.651
2.75953 0.0198692 395.386
0.614825 2.67252 395.064
1.61139 3.04606 395.532
3.59443 3.07445 395.414
4.49654 3.0839 395.485
5.41582 3.08396 395.493
8.48595 3.0862 395.774
11.1562 2.68042 396.231
7.45899 -0.984475 395.516
12.0054 2.89242 397.241
36.2657 -39.7985 393.329
12.459 3.11737 397.484
13.4516 3.09992 397.538
12.552 -15.9265 395.608
15.5096 3.10086 397.658
18.1564 -5.31334 397.149
16.5378 3.10106 397.687
17.5671 3.10143 397.739
19.4196 3.10203 397.813
30.4787 17.1113 398.682
29.5173 6.02594 398.575
21.4877 3.10405 398.062
23.5453 3.1042 398.089
24.6958 2.90086 398.406
26.3777 2.96966 398.426
48.3165 19.92 397.201
13.854 6.17616 397.301
25.2064 7.01537 398.345
5.54109 -3.05076 391.794
29.5789 3.1485 398.489
30.5526 3.09049 398.526
33.4691 3.10927 398.737
36.8394 -42.5759 395.856
34.5042 3.1097 398.799
49.0843 23.6863 398.438
39.4867 3.0943 399.019
25.3798 13.8918 398.408
0.854361 2.94993 395.776
40.643 4.24914 399.412
3.37146 3.18455 395.3
40.4996 -45.9108 396.995
39.0894 3.52655 399.347
3.55548 3.85401 395.898
4.42661 3.75769 395.756
18.1095 -9.80076 396.124
6.44247 3.80209 395.814
26.3762 4.05881 398.216
7.46552 3.70021 395.859
8.18731 3.70302 396.16
10.364 4.103 397.244
25.6387 16.8019 398.669
10.4408 2.827 395.912
11.3817 4.00971 397.406
12.4225 4.06411 397.46
46.0656 -37.6034 393.744
45.4848 18.138 394.144
13.452 4.12665 397.548
14.4798 4.12704 397.581
18.4693 4.14874 397.789
22.504 4.11587 398.158
39.1044 10.6934 397.403
38.453 -36.9088 392.845
23.5466 4.13254 398.112
25.2966 4.04994 398.416
34.3669 -36.988 393.688
27.5636 4.18105 398.382
39.9137 2.08267 399.339
41.556 5.07658 399.161
28.284 4.20848 398.224
30.5722 4.13711 398.559
31.5024 4.13766 398.608
33.4633 4.13827 398.668
-1.52707 -0.999941 394.883
26.3396 -6.15269 398.369
34.5053 4.13976 398.811
41.538 4.14378 399.196
42.5173 4.14345 399.162
19.4199 0.0200186 397.819
53.1305 16.9232 398.494
3.48771 4.22263 396.907
3.77936 3.89869 395.253
26.518 17.0451 398.576
19.419 5.05386 397.8
6.43576 -11.6341 391.266
29.9354 3.92877 398.303
36.9236 15.9747 396.028
-5.18996 -3.84914 394.25
41.5275 4.187 399.387
12.4154 4.36954 397.229
50.5355 19.0599 398.521
2.97938 4.33115 397.47
40.696 5.04872 399.426
30.5122 12.0858 398.724
45.4938 5.00827 399.638
3.3913 4.7436 397.627
3.5919 4.7373 397.099
4.48637 4.81106 396.841
8.72569 5.08274 397.383
28.457 -5.91291 398.21
9.64933 5.01437 397.385
10.4154 5.04685 397.247
5.37972 -1.8307 394.985
38.4398 5.0694 399.026
28.4643 -3.91369 398.229
47.624 15.0016 394.401
11.4313 4.9854 397.255
16.5352 10.1358 397.852
35.0935 9.69318 398.474
11.5258 5.07709 397.426
35.4317 10.053 397.65
29.549 14.0211 398.641
50.7693 11.077 398.448
13.4144 4.9958 397.508
15.5097 5.05209 397.661
10.3277 -12.8231 393.904
16.5385 5.05265 397.705
17.5653 5.05256 397.699
21.4857 5.05673 398.024
35.3889 21.051 397.682
46.5268 12.0474 394.133
32.4679 -31.9332 396.569
24.4367 5.09829 398.182
26.5288 5.08241 398.429
13.3528 0.996096 395.989
28.4918 4.87451 398.254
36.6745 22.7364 397.764
28.5081 5.1243 398.481
32.4335 5.06486 398.665
33.4706 5.066 398.755
34.5113 5.06758 398.881
44.3387 5.06346 399.182
22.9427 4.95781 398.336
41.3588 4.97045 399.352
45.1286 5.10662 399.248
46.2149 5.22598 399.964
7.23737 5.04839 397.368
12.4857 5.21843 397.293
45.2125 20.5883 394.285
25.5296 5.91303 398.427
8.10938 5.76654 397.356
13.6478 5.35494 397.272
6.3648 5.76646 397.35
7.47622 6.02743 396.973
23.6523 14.171 398.352
11.4121 2.82114 396.826
10.6112 5.88855 397.278
11.5124 3.275 397.425
10.5414 5.9943 397.418
11.4647 5.99626 397.467
34.5043 -41.9743 396.531
36.2078 -41.118 393.806
12.4218 5.97298 397.435
14.4789 5.97482 397.555
15.5076 5.9755 397.605
17.5642 5.97655 397.674
18.4928 5.97794 397.766
21.4872 5.98221 398.052
25.3315 6.02995 398.073
29.8324 5.57454 398.302
31.4753 5.99992 398.575
32.434 5.99154 398.671
33.475 5.99362 398.807
41.4161 2.2874 399.075
34.505 5.9936 398.808
36.4925 5.98481 398.875
39.4364 5.93968 398.968
35.5439 7.02524 398.908
40.4752 5.87179 398.775
9.52007 4.12286 397.174
41.4478 5.67109 398.665
40.852 7.0855 398.432
43.5245 5.57602 398.407
43.4892 6.0647 397.787
45.5577 5.78512 398.643
46.6239 5.69619 399.618
42.3998 6.09298 397.83
37.4345 -33.8617 392.803
44.4253 6.07058 397.951
47.282 6.01176 400.021
7.28825 5.97162 397.346
40.4964 6.24505 397.771
42.8806 5.96956 397.208
43.1621 5.96593 396.967
28.4825 -16.0192 398.123
33.3257 -19.9326 398.253
46.5466 17.1392 394.114
45.4803 6.21752 397.931
37.2314 6.20769 399.329
-1.46618 0.958396 394.984
42.5866 -45.3345 397.336
26.6489 -7.59317 398.379
7.6559 6.6482 396.893
8.54823 6.77444 397.209
23.6295 14.9138 398.424
10.364 7.16008 397.242
36.961 -19.6366 396.429
29.4443 -4.07003 398.153
11.4789 6.98992 397.483
15.4383 -12.8602 395.83
3.53631 -14.2676 393.764
13.4531 7.00191 397.581
25.4548 7.01295 398.207
21.4833 7.00891 397.98
12.4172 8.04535 397.56
7.47711 1.05848 395.573
46.6477 9.78952 397.743
18.2645 -20.0886 397.269
24.5016 7.10787 398.208
44.4728 14.0631 394.047
37.8866 -41.8253 393.285
28.5255 7.00926 398.485
29.532 7.00143 398.527
26.4894 4.19444 398.411
7.50736 4.19955 396.874
32.4334 7.02098 398.664
40.852 8.25165 398.432
37.4916 6.96833 398.928
37.4308 -34.8636 392.853
39.5441 7.00387 397.697
29.5756 18.1032 398.638
41.4497 20.3869 394.329
43.4594 7.00601 397.811
46.5458 6.99203 397.995
47.7671 6.60825 398.609
26.4011 -8.05655 398.168
7.90569 6.99932 397.434
28.0832 7.22017 398.293
50.5873 18.1738 398.497
37.7739 7.33985 398.092
16.4608 -11.9403 395.835
40.3266 7.20236 397.311
42.4378 18.1215 393.97
10.4814 7.96331 397.247
39.4229 -44.0109 396.735
48.5667 16.2147 394.402
11.4938 7.97249 397.474
17.5718 8.03401 397.845
25.4066 12.9791 398.258
18.5012 8.03603 397.947
4.61297 -5.95126 391.367
20.4543 8.03628 397.957
9.61502 4.12492 397.38
22.5182 8.03927 398.106
2.5683 -3.25623 392.914
23.5181 8.01848 398.208
2.87192 -3.35594 392.141
23.6495 8.10319 398.36
24.4411 8.0072 398.371
50.1688 8.43229 397.248
38.4395 5.99687 399.024
24.5368 8.08763 398.238
37.498 22.0036 397.782
38.5183 10.098 397.533
26.4925 8.00875 398.393
28.5075 8.04669 398.473
29.5403 8.04768 398.523
48.3914 -41.9649 397.052
47.2257 11.2391 394.942
31.4244 8.03428 398.707
32.4373 8.05149 398.711
8.59854 -15.0102 395.468
10.6767 5.04911 397.426
33.4701 8.0522 398.748
30.1392 -14.3797 398.277
35.5422 8.05509 398.89
37.1465 7.63401 398.418
19.4155 -3.88313 397.73
41.4968 8.03118 397.709
43.4857 8.05109 397.806
51.5538 13.9831 398.437
44.4909 8.03406 397.848
47.4607 8.02875 398.149
44.9152 20.0828 394.357
48.409 8.03066 398.103
45.4925 13.046 394.064
44.4492 -28.0213 397.738
31.5405 -21.1001 398.189
48.4079 14.1058 394.104
43.1813 7.8147 397.143
37.6578 8.4334 397.3
20.4369 -21.9544 397.616
50.056 8.44789 397.982
10.9817 8.63907 397.321
22.4999 -20.9364 397.783
19.4454 -20.9618 397.291
29.6442 -1.87241 398.26
11.586 8.80746 397.715
40.5611 12.0026 393.777
15.439 -11.0206 395.848
13.4707 9.03862 397.594
14.4834 9.05759 397.678
17.5526 9.04324 397.799
44.471 11.0097 394.03
29.4893 -35.9393 397.836
44.4416 -31.8148 396.797
18.475 9.08249 397.91
30.5826 -41.577 398.695
19.4236 9.06253 397.894
20.4566 9.06496 398.001
39.5252 19.064 393.927
26.5059 0.960782 398.439
22.1185 8.66065 398.314
45.9844 22.0337 398.326
23.4688 9.11032 398.186
8.55171 5.99585 397.178
23.8914 8.90887 398.374
5.63067 -4.06291 391.49
24.4333 9.20141 398.244
26.4868 9.23909 398.417
31.4565 9.07909 398.619
27.44 2.95237 398.412
26.3738 5.94124 398.367
32.4403 9.08206 398.748
34.5111 9.08496 398.879
37.5456 22.9847 397.791
27.4087 4.10778 398.207
38.5032 9.05477 397.554
8.50967 -1.9676 395.58
33.594 17.0236 397.778
40.5302 9.0832 397.569
34.1182 -36.6417 394.337
26.4675 3.18192 398.165
48.4106 9.06758 398.116
49.4692 9.05898 398.148
36.3933 12.1683 397.464
50.4244 9.06569 398.028
35.4003 11.9218 397.298
49.4168 9.14161 398.353
50.5865 20.0122 398.481
14.4036 -17.989 396.893
22.5029 12.9924 398.138
36.2162 9.45807 397.243
17.4961 -5.91354 396.133
41.7374 9.45386 397.066
45.3222 9.453 397.03
52.6495 17.089 398.165
36.4478 -39.9779 393.012
12.7172 9.65846 397.046
19.4368 -21.9276 397.615
13.1618 9.86368 397.053
15.5134 10.0866 397.755
19.4268 10.0918 397.96
45.4324 -30.1235 397.26
20.4608 10.0949 398.083
34.398 12.1183 397.572
15.4463 -3.86654 396.035
22.5025 10.0287 398.176
37.5041 -42.584 395.141
23.4548 10.0978 398.195
25.508 -17.9046 397.879
52.6799 14.7475 398.239
25.3221 10.1395 398.222
27.4938 7.03486 398.436
38.1515 11.8369 396.744
26.5013 10.1667 398.48
12.4453 8.95622 397.497
42.7627 10.1766 393.293
49.8747 18.3236 398.177
27.6693 9.89365 398.258
28.5108 10.106 398.519
37.5241 5.98536 398.979
32.4382 10.1111 398.722
33.4765 10.1137 398.825
34.4059 10.0702 398.734
12.4017 -19.8738 397.077
51.5295 16.9385 398.25
47.1519 -44.0477 397.761
37.4518 9.76702 397.291
37.3065 19.1788 397.52
34.2367 14.7259 397.288
34.5191 20.0209 397.933
40.4024 9.71429 397.653
40.4646 9.95035 396.876
43.4759 8.87893 397.727
41.2009 9.65339 396.838
42.4631 9.88179 394.799
45.3643 9.7913 395.786
47.4247 9.68961 398.327
49.4002 10.0605 398.155
50.7116 15.0373 398.289
51.4309 10.0922 397.978
35.5009 10.3309 397.275
5.33525 -17.9427 395.199
44.5235 10.0231 394.635
45.4907 10.2491 394.785
34.3742 12.5374 397.296
22.6337 10.4612 398.33
5.56274 -5.94487 391.458
40.2798 10.2426 395.843
41.4968 6.98552 397.71
22.5328 9.08349 398.062
43.4458 10.3211 393.962
5.55018 -17.9501 395.362
6.47709 5.08414 397.156
44.445 10.3332 394.101
15.6348 10.8923 397.797
16.5615 11.0992 397.845
44.3833 -29.9475 397.23
24.5259 -1.91035 398.06
18.4654 11.1574 397.914
19.4276 11.1199 397.977
20.4574 11.1211 398.016
22.521 11.125 398.155
45.1412 4.35837 399.969
25.4489 11.1646 398.411
19.4192 -1.00731 397.804
41.4036 15.1135 393.891
25.3023 11.0244 398.235
36.5494 3.09142 398.844
27.4711 11.1152 398.508
32.4424 11.1423 398.774
33.4906 11.1283 398.89
37.4672 11.1139 397.454
49.1014 15.0382 394.715
40.5014 -36.9265 393.033
39.2421 10.7434 396.721
41.0513 10.613 394.415
41.4248 11.0239 393.932
43.4433 11.0071 393.939
45.4281 -42.0216 397.059
51.5462 19.0773 398.547
45.4151 11.0204 394.066
46.5237 10.9876 394.611
16.4661 -12.8645 395.963
4.33634 -2.29956 393.922
43.4475 5.11302 399.212
50.301 11.1697 398.179
23.4385 15.263 398.215
28.5319 11.1195 398.574
51.6097 10.9722 398.208
23.5243 -19.9066 397.734
52.5456 19.1452 398.157
24.4784 11.281 398.217
36.2001 3.32014 399.329
27.5153 11.2308 398.261
37.4501 10.8951 397.274
24.8045 4.23951 398.499
40.4664 11.1756 394.052
42.5592 10.7859 393.29
46.3532 11.2156 394.114
49.5351 11.1816 398.34
26.3305 11.2556 398.231
52.1924 11.2941 398.077
39.7323 11.3518 394.13
47.9876 11.2744 396.18
51.4397 11.226 398.424
28.0791 11.5386 398.235
31.412 12.0051 398.767
10.5152 -17.9408 395.532
24.6219 16.1037 398.208
19.4327 12.0482 398.083
20.4436 -17.9008 397.565
50.3304 12.0621 398.166
45.4041 -31.759 397.208
20.4375 12.0634 398.051
21.47 12.0504 398.155
21.7133 12.0588 398.43
23.6115 11.9531 398.339
29.5511 12.066 398.67
32.4421 12.069 398.769
33.7837 12.1825 397.995
35.4138 12.1402 397.449
49.5473 -35.914 397.464
37.4103 12.0242 397.491
