ply
format ascii 1.0
comment Created by Open3D
element vertex 1661
property double x
property double y
property double z
end_header
0.161072 -0.102892 0.567038
0.164554 -0.103236 0.566915
0.190043 0.0442008 0.567333
0.150922 -0.12061 0.567998
0.0897504 0.0311041 0.584978
0.184881 -0.0537005 0.563222
0.043863 -0.0415322 0.595382
0.165014 -0.103066 0.565981
0.166096 -0.102629 0.565184
0.194269 -0.00197351 0.563009
0.160962 -0.090703 0.56734
0.0569853 -0.059723 0.591033
0.166131 -0.102771 0.565967
0.170353 0.0566501 0.571625
0.166641 -0.102845 0.566373
0.168804 -0.102579 0.565444
0.0276507 -0.0443173 0.594208
0.156241 -0.0918821 0.569194
0.196133 -0.0367701 0.561512
0.0740819 -0.05574 0.585143
-0.118557 -0.0486498 0.64338
0.177321 -0.0357498 0.565574
0.187227 -0.0414599 0.56371
0.177949 -0.0377824 0.565366
0.177869 -0.0879212 0.563607
0.154739 -0.0388033 0.571797
0.150675 -0.0707259 0.570212
0.165904 -0.0857933 0.566148
0.0951564 -0.0169467 0.582503
0.173506 0.0563229 0.571304
0.160188 -0.112635 0.567021
0.162906 -0.099678 0.567154
0.156171 -0.103312 0.567333
0.174035 -0.085815 0.5644
0.148629 -0.117393 0.568774
0.197921 0.0253328 0.565126
0.153193 -0.0966155 0.569346
0.189875 -0.0398681 0.562492
0.039451 -0.134494 0.628035
0.190912 -0.0386119 0.562548
0.167898 -0.0912867 0.567322
0.0460859 -0.0502992 0.592309
0.0388493 -0.0641547 0.598748
0.183943 -0.0557879 0.564214
0.0643022 -0.0645335 0.588097
0.0365582 -0.0423451 0.596716
0.0728333 -0.0659042 0.589481
0.10358 -0.0241015 0.580773
0.178738 -0.0895208 0.56359
0.137184 -0.104042 0.573785
0.144612 -0.103562 0.570324
0.186044 -0.0377147 0.563482
0.0998846 -0.0218117 0.582157
0.156136 -0.102962 0.568099
0.164874 -0.0606486 0.568219
-0.0281068 -0.104805 0.651338
0.174083 -0.0807734 0.564556
0.158197 -0.102752 0.568291
0.161442 -0.114123 0.564232
0.191041 -0.0540121 0.56293
0.0690142 -0.0485323 0.586375
0.0446233 -0.0419435 0.593217
0.159075 -0.108179 0.566712
0.134934 -0.10501 0.571788
0.160802 -0.102777 0.568155
0.187043 -0.0315215 0.563157
0.153159 -0.113475 0.569769
0.147596 -0.0730655 0.571605
0.188863 0.023223 0.566215
0.152781 -0.0738923 0.570007
0.107004 -0.0248503 0.579228
0.101847 -0.00787211 0.579457
0.194736 0.0432831 0.566198
0.171838 -0.102221 0.562937
0.1858 -0.0678104 0.562332
0.098978 -0.0147302 0.580194
0.178799 -0.074116 0.566089
0.177591 -0.0112089 0.566437
0.118995 -0.0188481 0.576187
0.159252 0.0493377 0.574214
0.170304 0.00227225 0.569483
0.0757461 -0.0324079 0.588045
0.165142 -0.0987839 0.564915
0.17062 -0.0869962 0.565168
0.182524 -0.0280944 0.564487
0.18696 0.0638557 0.570005
0.104928 -0.00470022 0.579239
0.162792 -0.114354 0.565375
0.170779 0.0662709 0.573054
0.133454 -0.126258 0.574325
0.165771 -0.0946899 0.565318
0.165643 -0.0946815 0.566229
0.166748 -0.0638868 0.567067
0.0139159 -0.0558291 0.600191
0.164796 -0.109764 0.567078
0.157695 -0.0925869 0.569307
0.176758 -0.0897452 0.56378
0.156491 -0.0390199 0.570641
0.173619 -0.0859423 0.563049
0.0328934 -0.0210574 0.598786
0.185999 -0.0385331 0.563522
0.169225 0.00344578 0.568826
0.193039 -0.0497906 0.561266
0.104063 -0.0137166 0.575421
0.189117 -0.0349677 0.562399
0.100485 -0.0136018 0.581106
0.0383841 -0.0114006 0.591578
0.164763 0.013192 0.570685
0.173881 -0.0768076 0.565797
-0.119242 0.0193998 0.673552
0.00214235 -0.130203 0.635615
0.189846 0.0401944 0.567183
0.148653 -0.0963274 0.571127
0.0225272 -0.0327038 0.600928
0.0222228 -0.0625421 0.601097
0.0150373 -0.0488219 0.599548
0.0909694 -0.00872835 0.584137
0.186576 0.0131078 0.567046
0.170692 -0.0957546 0.566863
0.18002 0.0402579 0.568251
0.1735 0.0201902 0.568381
0.084801 0.0130612 0.586899
0.196829 0.00487142 0.563672
0.161207 -0.0768589 0.569064
0.163968 -0.0987933 0.566309
0.0277785 -0.0406651 0.596958
0.0298736 -0.0607478 0.597203
0.146862 -0.126896 0.570189
0.0649896 -0.0166739 0.588816
0.169392 -0.0804638 0.565457
0.174854 -0.0868011 0.564218
0.181931 -0.0337827 0.564458
0.0252738 -0.0512339 0.592496
0.0734017 -0.0645155 0.587933
0.160179 -0.102611 0.567507
0.0708911 -0.0167314 0.587276
0.161856 0.0164864 0.572401
0.0589291 -0.0639286 0.59023
0.161954 -0.102479 0.567047
0.109403 -0.0227693 0.57744
0.17275 -0.0968463 0.564969
0.0360102 -0.0176836 0.597219
0.183766 0.0724193 0.570152
0.157669 -0.0826609 0.568506
-0.059046 -0.0134474 0.662259
0.169088 -0.101813 0.564442
0.173493 -0.0985515 0.563586
0.0707578 -0.0198656 0.588692
0.171036 -0.101854 0.56413
0.149133 -0.103087 0.570139
0.178863 -0.0877317 0.564075
0.0321567 -0.00978895 0.598997
0.168833 -0.0256326 0.569061
0.1822 -0.0507641 0.563483
0.16412 -0.0904919 0.566936
0.0188579 -0.0397333 0.599195
0.165816 -0.0968227 0.564974
0.173191 -0.0974988 0.565931
0.17229 -0.032285 0.566336
0.157807 -0.0684679 0.569002
0.0745599 0.0262901 0.589883
0.177799 -0.0908266 0.563016
0.154998 -0.0381304 0.570573
0.0881656 0.0198416 0.584066
0.0608664 -0.0579705 0.585266
0.0689077 -0.0660971 0.588485
0.153635 -0.112851 0.566634
0.159944 -0.119343 0.564093
0.175896 -0.0606483 0.565341
0.18059 -0.0646077 0.564826
0.0381567 -0.0105048 0.592797
0.148838 -0.0929187 0.570138
0.0739879 -0.0587952 0.585016
0.0726523 -0.0246546 0.58679
0.0728113 -0.0249085 0.585628
-0.105168 0.0121921 0.679345
0.172234 0.0800435 0.571983
0.162007 0.0565356 0.573461
0.161888 -0.0946354 0.566302
0.0174635 -0.0455065 0.597725
0.096833 0.00222888 0.583837
0.170788 -0.0958699 0.565239
0.171065 -0.0608579 0.566159
0.194841 -0.0106404 0.564243
0.0670548 -0.0639507 0.58647
0.144315 -0.121986 0.570315
-0.0611025 -0.1176 0.651338
0.0244677 -0.0627213 0.602819
0.178872 -0.088655 0.564013
0.147677 -0.07266 0.573068
0.186676 -0.0319242 0.565132
0.150701 -0.102502 0.56772
0.0998249 0.0197887 0.582511
0.184076 -0.0668315 0.562247
0.152105 -0.102856 0.56968
0.0367885 -0.0466643 0.596163
0.196178 -0.00356396 0.561393
0.157909 -0.0994758 0.568312
0.157502 -0.102345 0.566847
0.145297 -0.0869336 0.569544
0.158341 -0.102699 0.56881
0.14551 0.0627235 0.578587
0.185057 -0.0267893 0.565167
0.185485 -0.000373938 0.564617
0.18647 -0.0642291 0.564066
0.0588847 -0.0637754 0.590932
0.16157 -0.102509 0.567757
0.181112 -0.0518687 0.566002
0.159395 -0.047767 0.569423
0.095861 0.0101798 0.584044
0.0980349 -8.46908e-05 0.58261
-0.129893 -0.0389111 0.676436
0.193859 -0.0277668 0.561989
0.0978741 -0.0148337 0.581119
0.177587 -0.0662197 0.563636
0.182621 -0.0744106 0.563886
0.168908 -0.0365385 0.568749
-0.0303854 0.0061503 0.635615
0.105927 -0.00373768 0.579325
0.166661 -0.0540216 0.567103
0.0420708 -0.000701018 0.594412
0.18094 -0.00278938 0.56615
0.175108 -0.0546754 0.565982
0.181458 -0.0661713 0.565713
0.163634 -0.102515 0.56779
0.163143 -0.0488768 0.568637
0.176784 -0.0137879 0.567135
0.181763 -0.0648634 0.564087
0.16428 -0.102052 0.566307
0.0785711 -0.0219681 0.587954
0.164975 -0.101697 0.566098
0.184248 0.0719027 0.570731
0.157747 -0.0828982 0.568789
0.133857 -0.115447 0.572242
0.0790206 -0.0217971 0.587125
0.165203 -0.101888 0.565126
0.158852 -0.1011 0.566438
0.148651 -0.0883548 0.571118
0.0979928 -0.01987 0.582136
0.165947 -0.101683 0.565338
0.166854 -0.101747 0.565152
0.150802 -0.0996347 0.568102
0.0607472 -0.0279017 0.587037
0.197078 -0.0117278 0.563239
0.158985 -0.0618149 0.569221
0.0262151 -0.0625851 0.600019
0.171153 0.0208139 0.569369
0.178097 -0.0904389 0.563865
0.155006 -0.0377079 0.570875
0.144191 -0.108774 0.569825
0.148063 -0.0898326 0.571129
0.162693 0.00699683 0.570669
0.0298551 -0.0368953 0.598377
0.0989311 0.00922011 0.583011
0.0578207 -0.0485064 0.590984
0.163515 -0.0628465 0.567377
0.170808 -0.0203498 0.568224
0.191945 0.000428959 0.564946
0.170988 -0.0977447 0.565098
0.0927524 -0.013768 0.583903
0.0808741 0.0220729 0.583193
0.151215 -0.126115 0.569657
0.0737228 -0.0585447 0.584455
0.165841 -0.0678839 0.567809
0.153773 -0.0578745 0.570406
0.0309355 -0.0534817 0.595358
0.198135 -0.0253377 0.561593
0.0341439 -0.0201678 0.597649
0.143143 -0.100323 0.570345
0.169649 -0.0248008 0.56926
0.1474 -0.102772 0.570845
0.0847931 -0.0136559 0.586004
0.0729065 -0.0658943 0.590074
0.156877 -0.101799 0.568301
0.0390053 -0.0389317 0.59546
0.0558815 -0.0284844 0.593913
0.0345779 -0.0286305 0.598031
0.161246 -0.102196 0.567648
0.169758 -0.0474074 0.568641
0.196983 -0.0157818 0.562447
0.150865 -0.0998707 0.569448
0.0257188 -0.0568086 0.5969
0.197403 -0.0120455 0.564479
0.15983 -0.101642 0.567832
0.196961 -0.00357028 0.562383
0.180962 -0.00395197 0.56709
0.163828 -0.101885 0.567276
0.165047 -0.101822 0.5672
0.054935 -0.0525158 0.591986
0.169984 0.0619019 0.572373
0.162609 0.0389769 0.572447
0.160766 0.0188471 0.572206
0.170843 -0.080794 0.566177
0.17059 -0.0865449 0.566039
0.192176 0.0375286 0.568438
0.148476 -0.123735 0.568191
0.0938911 0.0261535 0.583435
0.165115 -0.0879844 0.56683
0.0438575 -0.00588286 0.590247
0.168249 -0.0790057 0.566529
0.0438099 -0.0607323 0.5942
0.145093 -0.0758065 0.572223
0.183916 0.0390786 0.568188
0.0499121 -0.0151349 0.594119
0.174137 -0.0818887 0.565204
0.0468323 -0.0497271 0.594009
0.0555859 -0.0255027 0.592399
0.0868761 -0.0127755 0.58453
0.157791 -0.0866954 0.568947
0.168818 -0.042894 0.567262
0.0330017 -0.061452 0.596547
0.157621 -0.122612 0.567982
0.167607 -0.0860802 0.566833
0.157431 -0.0863793 0.569772
0.157319 -0.0254417 0.570433
0.183679 -0.0766732 0.564449
0.129526 -0.0573169 0.576662
0.0527713 -0.045696 0.592171
0.1597 -0.0887447 0.568415
0.173368 0.0146463 0.569879
0.175855 0.00418118 0.568872
0.164837 -0.0925522 0.56789
-0.00180768 -0.114565 0.638182
0.13444 -0.102651 0.573466
0.185719 0.0592592 0.568309
0.000821486 -0.113193 0.630541
0.151825 -0.101834 0.568081
0.0539876 -0.0435158 0.591663
0.169151 -0.0574892 0.566608
0.0460039 -0.0156406 0.593886
0.156082 -0.101699 0.568972
0.158016 -0.0578086 0.569756
0.155984 -0.101686 0.568078
0.0936713 0.0232564 0.58263
0.0730215 -0.0130154 0.588543
0.156512 -0.101878 0.567509
0.190821 -0.0509271 0.563139
0.15802 -0.102094 0.568714
0.193966 0.0463369 0.5662
0.166074 -0.106047 0.565107
0.160472 -0.101599 0.565954
0.163808 -0.107043 0.565353
0.15685 -0.101803 0.568733
0.168007 0.0598215 0.573702
0.141394 -0.113548 0.571618
0.159169 -0.0920365 0.566522
0.149248 -0.0884786 0.570014
0.172572 -0.0145974 0.567263
0.166199 -0.101345 0.56454
0.173557 -0.0740643 0.565693
0.137812 -0.123837 0.572284
0.168936 -0.10144 0.565888
0.0169809 -0.0467669 0.597053
0.0460149 6.71969e-05 0.594356
0.0468301 -0.0630298 0.593981
0.0848064 -0.0199224 0.585888
0.175661 0.0595362 0.571911
0.167547 -0.0991705 0.567126
0.176997 0.0153887 0.568289
0.163933 -0.0918766 0.567084
0.181374 -0.0251789 0.564541
0.177985 -0.00980246 0.566385
0.179225 -0.0744031 0.566047
0.0860871 -0.0169991 0.584302
0.122424 -0.113131 0.575507
0.0741103 -0.0343113 0.591161
0.174469 -0.0907443 0.564859
0.181764 -0.0377994 0.565074
0.198485 0.00573447 0.562585
0.100428 -0.0210994 0.580772
-0.0289973 -0.0631322 0.648663
0.170381 -0.0654195 0.566801
0.151263 -0.079909 0.569838
0.170435 -0.0872645 0.56407
0.156474 0.034028 0.573822
0.169857 -0.0661194 0.566522
0.151197 -0.0795793 0.569586
0.156448 0.0391383 0.574816
0.0449548 0.000836071 0.594899
0.172672 -0.0868291 0.565031
0.0466202 -0.12839 0.595221
0.174838 -0.0957368 0.564168
0.0458961 -0.0558765 0.593373
0.0722242 -0.0227898 0.588243
0.163033 0.0393039 0.572899
0.0648868 -0.0640555 0.587198
0.170727 -0.0803871 0.566977
0.178851 -0.0275455 0.566056
0.0335396 -0.0105951 0.597891
0.177733 -0.0899402 0.563176
0.0443501 -0.00587631 0.589584
0.158735 -0.0187744 0.570932
0.180047 0.0759617 0.570196
0.16379 -0.0877454 0.565291
0.167282 -0.0605106 0.56656
0.158322 -0.0887042 0.567686
0.153371 -0.121014 0.567827
0.186861 -0.0328591 0.564256
0.0990808 -0.00874539 0.58109
0.179801 0.0444248 0.569263
0.173896 0.0242015 0.569437
0.160132 -0.0889439 0.567343
0.0515419 -0.0163933 0.595207
0.0670022 -0.0536666 0.583154
0.0627171 -0.0618094 0.587487
0.180965 -0.052806 0.564449
0.175492 -0.0724353 0.564393
0.170102 -0.0467787 0.567128
-0.092504 -0.0632405 0.656753
0.0960831 -0.0157462 0.582645
0.0688509 -0.048806 0.585416
0.179094 -0.0794824 0.564714
0.116868 -0.0147846 0.576116
0.133934 -0.10249 0.572567
0.144534 -0.102242 0.571183
0.0274826 -0.0439871 0.593897
0.0849375 -0.0126861 0.585053
0.147685 -0.101879 0.570806
0.187947 -0.00267067 0.565376
0.155398 -0.101623 0.567724
0.184016 0.0730503 0.569328
0.158195 -0.0839598 0.569342
0.185041 0.0542738 0.569281
0.0948697 -0.00767194 0.583209
0.16975 -0.100567 0.565092
0.0708875 -0.0177299 0.587247
0.193567 -0.0390744 0.561534
0.085798 0.0344132 0.585421
0.0865262 -0.0291268 0.585229
0.179186 -0.0607714 0.564449
0.0241403 -0.0329887 0.599331
0.103869 -0.0239644 0.579875
0.187093 0.010173 0.566836
0.0929008 -0.0127949 0.584034
0.169802 -0.0948579 0.566175
0.164415 -0.0327 0.568461
0.17784 -0.0357366 0.565366
0.170946 0.0653558 0.571959
0.189793 -0.0577155 0.56225
0.177759 -0.00591454 0.568175
0.142834 -0.12714 0.57029
0.101924 -0.0147512 0.580127
0.0557698 -0.0271233 0.594359
0.162976 -0.0627179 0.567542
0.145668 -0.0508554 0.572156
0.188812 -0.0438105 0.563127
0.186036 -0.0445074 0.565407
0.163088 -0.0605217 0.568959
0.15251 -0.120674 0.568995
0.186898 -0.032585 0.564772
0.196001 -0.0287891 0.563805
0.174875 0.0281054 0.569512
0.0651028 -0.0527654 0.583466
0.160364 -0.0888284 0.566607
0.100041 0.00403113 0.5826
0.0148972 -0.0478621 0.600142
0.027682 -0.0224913 0.599882
0.173977 -0.0526 0.565475
0.090909 -0.00776442 0.584234
0.171687 -0.0975584 0.566277
0.171187 -0.0422553 0.566561
0.0918486 -0.0195894 0.583487
0.0637369 -0.0539064 0.583847
0.168377 0.0797259 0.573954
0.174526 -0.0877079 0.565991
0.181521 -0.0328456 0.565908
0.174103 -0.0226188 0.566203
0.134636 -0.102053 0.571778
0.195093 -0.0288457 0.563203
0.16932 -0.0931248 0.564245
0.153094 -0.0915134 0.569342
0.134419 -0.113304 0.573374
0.0749429 -0.0184772 0.589059
0.162599 -0.101245 0.567253
0.196004 0.0200449 0.564293
0.163195 -0.100889 0.565255
0.164598 -0.100886 0.566059
0.177994 -0.0498309 0.564463
0.0490162 -0.0154018 0.592571
0.188865 0.0219172 0.565562
0.170635 -0.100517 0.565219
0.167892 -0.0986925 0.566067
0.188742 -0.0417969 0.563017
0.179944 -0.0246607 0.565205
0.161409 -0.106805 0.56719
0.169004 -0.0317421 0.567098
0.150562 -0.114764 0.568856
0.180258 0.0812444 0.572111
0.15359 -0.0991407 0.568637
0.170043 -0.0684654 0.566375
0.151397 -0.078954 0.571454
0.158555 -0.0957105 0.56747
0.031239 -0.12502 0.613405
0.160948 0.013809 0.571802
0.164492 -0.0629962 0.568729
0.170043 -0.0168483 0.569006
0.168956 0.0223026 0.571062
0.195995 -0.0288965 0.562114
0.175107 0.02824 0.570746
0.0986809 -0.00888663 0.580505
-0.0826547 -0.0210563 0.654034
0.0968931 -0.0217192 0.582184
0.185973 -0.0718204 0.563003
0.0113901 -0.044531 0.603346
0.0998171 0.0041849 0.583052
0.0160007 -0.0568226 0.599353
0.0280451 -0.0227924 0.599356
0.19662 0.0234159 0.565866
0.0815223 0.0201805 0.58514
0.0371791 -0.0284677 0.596779
0.189867 0.0473459 0.568123
0.140095 -0.105482 0.571142
0.194777 0.00920964 0.564239
0.0427958 -0.0151163 0.593387
0.166097 0.00433835 0.570201
0.176876 -0.00775158 0.567497
0.0148732 -0.0515339 0.600066
0.166605 0.0599339 0.571944
0.14145 -0.113002 0.571846
0.184754 0.0242446 0.567003
0.050299 -0.0609265 0.591446
0.0586682 -0.0483598 0.591058
-0.106949 -0.0618093 0.670693
0.154828 -0.0906934 0.568506
0.14035 -0.127293 0.570977
0.181204 -0.0208828 0.566747
0.0278754 -0.0506124 0.593109
0.155329 0.0406423 0.575076
0.12967 -0.10227 0.574659
0.0847468 -0.0130057 0.585825
0.144011 -0.111469 0.57106
0.18414 -0.0656812 0.563184
0.152182 -0.101435 0.569968
0.0389398 -0.0438724 0.595988
0.148142 -0.093534 0.570296
0.159767 -0.0258366 0.571016
0.111066 -0.00247233 0.577549
0.170946 -0.0267644 0.567219
0.164146 -0.105423 0.564503
0.15419 -0.104534 0.567598
-0.111302 -0.0424639 0.630541
0.156617 -0.101065 0.567887
0.159192 -0.0907527 0.567651
0.0858281 -0.0145901 0.584595
0.157162 -0.101227 0.5688
0.179033 -0.071763 0.564154
0.184882 0.0200032 0.567245
0.152458 -0.0552787 0.571003
0.141583 -0.103236 0.571783
0.188454 -0.0298602 0.56477
0.147718 -0.0967882 0.570364
0.152442 -0.0928697 0.569838
0.157998 -0.101198 0.568633
0.174174 -0.0803549 0.56675
0.172652 -0.0156309 0.567524
-0.094016 -0.07504 0.665046
0.157768 -0.0988561 0.568015
0.148199 -0.109572 0.56938
0.0667666 -0.027906 0.58395
0.0978987 -0.00178318 0.58294
0.0979123 -0.0125665 0.580455
0.0979441 -0.00165022 0.582428
0.0980038 -0.0127584 0.580997
0.181971 -0.0676994 0.563827
0.163765 -0.100669 0.566213
0.0489126 -0.0458752 0.593171
0.163866 -0.10047 0.564544
0.019979 -0.0416322 0.599033
0.142269 -0.105266 0.571571
0.180823 -0.0248573 0.565189
-0.090922 -0.0681645 0.665046
0.163755 -0.108711 0.567193
0.191915 0.0444862 0.567233
0.148776 -0.124867 0.569338
0.180917 -0.0597288 0.564936
0.175871 -0.0696604 0.565212
-0.0161232 -0.0892242 0.64338
-0.141689 -0.0387272 0.679345
0.194708 -0.000859773 0.564279
-0.0232506 -0.0891632 0.638182
0.166162 -0.0789954 0.565407
0.0729602 -0.0247681 0.586285
0.169844 -0.097216 0.565988
0.178211 -0.00569033 0.567244
0.142662 -0.12679 0.571372
0.178719 -0.0309342 0.56519
0.155005 -0.00659707 0.57278
0.169567 -0.0187104 0.568986
0.187084 -0.0483412 0.562406
0.171229 -0.0175573 0.568157
0.0799583 -0.0226399 0.586982
0.158788 -0.0988999 0.567256
0.189511 -0.0379829 0.564004
0.134906 -0.115332 0.571672
0.116438 -0.0200606 0.5768
0.155689 -0.116001 0.567715
0.167924 -0.00561624 0.569399
0.0639152 -0.0567711 0.583305
0.181713 0.0772642 0.571109
0.173622 -0.0500626 0.56543
0.0457977 -0.010658 0.589165
0.0940266 0.0224135 0.584214
0.0479966 -0.0246969 0.59512
0.162375 -0.101178 0.568522
0.160942 -0.037708 0.56865
0.154515 -0.0939076 0.56988
0.115855 -0.00481769 0.576373
0.166045 -0.0917332 0.566006
0.170022 -0.100194 0.564636
0.198685 -0.0192948 0.563151
0.172895 -0.0997472 0.565204
0.173103 -0.100022 0.564215
0.166939 -0.0108194 0.569053
0.158697 0.0510304 0.574892
0.18111 -0.0254746 0.564627
0.165103 -0.0965909 0.567042
0.188973 -0.040294 0.563706
0.0201287 -0.0564297 0.598882
0.0185819 -0.0548851 0.598917
0.0234501 -0.137519 0.625548
0.169856 -0.0614863 0.567005
0.0409041 -0.0497743 0.595044
0.101884 -0.0157399 0.579946
0.0766675 -0.0539143 0.585024
0.0367798 -0.0327457 0.596974
0.195804 0.034179 0.564076
0.0771227 0.0213189 0.587339
0.175788 -0.0848619 0.565158
0.18089 -0.0406542 0.565242
0.197151 -0.0283497 0.56376
0.194923 -0.0376437 0.561119
0.0864784 0.0218719 0.581855
0.0519602 -0.0148866 0.596477
0.036866 -0.00584566 0.59422
0.178909 -0.0167858 0.566902
0.0280874 -0.0249154 0.599318
0.15723 -0.0838504 0.567275
0.196966 -0.0277837 0.561156
0.149053 -0.0886578 0.569272
0.179061 0.0325263 0.568315
0.0959853 -0.0268378 0.582966
0.190936 -0.0147876 0.563957
0.0721591 -0.0476143 0.58689
-0.0915265 -0.116686 0.659494
-0.118389 -0.0441278 0.670693
-0.0151255 -0.113835 0.64338
0.185943 0.0418891 0.5678
0.0580471 -0.0491386 0.589406
0.171076 -0.0407896 0.567358
0.168168 -0.0816067 0.565274
0.179896 -0.00260334 0.567057
0.16022 -0.0949755 0.569218
0.0949018 -0.000688625 0.583981
0.0898735 -0.0076947 0.584177
0.184301 -0.0306765 0.563676
0.180996 0.0192422 0.567287
0.173825 -0.0219527 0.567141
0.142796 -0.101085 0.571317
0.170655 -0.0875771 0.566091
0.154753 -0.100412 0.567514
0.158288 -0.100421 0.567564
0.164826 -0.100293 0.566841
0.169553 -0.0999966 0.565995
0.0968489 -0.0107522 0.582065
0.158971 0.0509751 0.57427
0.180921 -0.0257115 0.565558
0.0458916 -0.0623921 0.593756
0.169643 -0.0687868 0.566783
0.162901 -0.111552 0.565248
0.19286 -0.0107232 0.563993
0.179091 -0.0290283 0.565626
0.195047 -0.0298312 0.561477
0.191943 0.0432803 0.566163
0.148648 -0.12598 0.567723
0.195206 -0.0417858 0.563192
0.14349 -0.126278 0.571727
0.191884 -0.0117473 0.564173
0.192272 -0.0479668 0.561426
0.0258887 -0.0460314 0.59255
0.0240414 -0.0256419 0.599956
0.154733 0.00697669 0.573053
0.167797 -0.0688795 0.567145
0.137464 -0.0967639 0.573715
0.164759 -0.0558316 0.567623
-0.0152103 -0.134918 0.633068
0.0339573 -0.0389408 0.596542
0.0729404 -0.0317707 0.587333
0.0952183 0.0203573 0.584423
0.037062 -0.0328767 0.59655
0.0588556 -0.0578096 0.58835
0.154294 0.0171093 0.573438
0.17237 0.054472 0.570477
0.172525 -0.00862777 0.570013
0.146909 -0.119728 0.570089
0.141747 -0.126337 0.57066
0.108915 -0.00662105 0.574862
0.152997 -0.124296 0.568071
0.0906609 0.013211 0.584581
0.0447463 -0.0467226 0.594851
0.0319532 -0.0608426 0.597123
0.0778777 0.0318678 0.587309
0.078626 -0.0305924 0.58723
0.0428454 -0.0421579 0.594077
-0.0915265 -0.072709 0.659494
0.180314 -0.0775647 0.563506
0.192582 -0.0504076 0.562756
0.182627 -0.059058 0.564804
0.186988 0.0303531 0.567231
0.166417 -0.0960491 0.564289
0.0449692 -0.0468156 0.594243
-0.000484209 -0.111683 0.633068
0.154594 -0.0796566 0.569087
0.163154 -0.0678835 0.56842
0.025601 -0.105879 0.600167
0.0688282 -0.0595802 0.582026
0.14119 -0.100697 0.570794
0.169027 -0.0851059 0.567173
0.150066 -0.100319 0.568651
0.145768 -0.093524 0.570235
0.155806 -0.100082 0.568141
0.157421 -0.0999496 0.566557
0.185251 -0.0297293 0.565985
0.159737 -0.0997677 0.568022
0.159867 -0.0998307 0.567268
-0.102008 -0.113678 0.667858
0.0274415 -0.0292274 0.599708
0.161297 -0.0997593 0.567141
0.07795 0.0223 0.587854
0.159887 -0.118564 0.56734
0.152953 0.0406427 0.575081
0.0948758 -0.0118682 0.583
0.162758 -0.112275 0.56374
0.0908658 0.0203492 0.583471
0.169901 -0.0676892 0.56618
0.0631391 -0.0642834 0.58859
0.15788 -0.0739826 0.569001
0.105736 -0.0189404 0.579015
0.155144 -0.0744825 0.570389
0.187893 -0.0417375 0.564087
0.165065 0.0436959 0.572243
0.169874 -0.0646918 0.566415
0.152553 -0.0359676 0.571357
0.172796 -0.0928305 0.565117
0.0600702 -0.0275388 0.586846
0.170601 -0.0176273 0.568837
0.180852 -0.0557942 0.564277
0.176112 -0.0739093 0.56451
0.190683 0.00983841 0.564453
0.0258294 -0.0247471 0.600066
0.0168308 -0.04304 0.599953
0.0795204 0.0294618 0.585248
-0.101235 -0.0155666 0.665046
0.182062 -0.0806402 0.562609
0.13223 -0.125176 0.574811
0.180771 0.0172226 0.567409
0.173838 -0.0197346 0.567429
0.194872 -0.0157522 0.561392
0.173803 0.03724 0.570019
0.0619682 -0.0287586 0.585433
0.0682679 -0.0606445 0.584311
0.191898 0.0382179 0.567037
0.146566 0.0118196 0.575684
0.186828 -0.0148351 0.565149
0.145051 -0.124786 0.570313
0.164201 -0.0879866 0.568738
0.14145 -0.110177 0.569465
0.150371 -0.111126 0.569805
0.105914 0.000215859 0.58095
0.0621432 -0.0459269 0.589244
0.15826 -0.0189613 0.570637
0.164751 0.0407699 0.572693
0.172989 0.0272224 0.57106
0.106883 -0.0243744 0.578341
0.184926 -0.0526988 0.564101
0.185241 -0.0529231 0.564765
0.0380366 -0.105212 0.598138
0.121325 -0.114389 0.577355
0.130568 -0.101202 0.575342
0.182652 -0.0157141 0.566998
0.10005 0.0100778 0.582507
0.0937599 0.0131141 0.584748
0.0689941 -0.059303 0.581522
0.141147 -0.100581 0.571813
0.0270032 -0.0496909 0.59236
0.0426578 -0.0398126 0.595744
0.145696 -0.100106 0.569952
0.032657 -0.00968107 0.598708
0.171232 -0.0418997 0.567033
0.149316 -0.10031 0.570274
0.154894 -0.0998895 0.568298
0.188021 -0.0486799 0.563296
0.159767 -0.0994762 0.565531
0.159034 -0.0878451 0.56735
0.162038 -0.0942223 0.56734
0.16302 -0.112758 0.566168
0.0600763 -0.0198891 0.589386
0.1775 -0.0919648 0.564285
0.0637454 -0.0286317 0.584386
0.16292 -0.11288 0.565313
0.192754 -0.00978928 0.564172
0.178823 -0.0258367 0.566165
0.0549734 -0.0579058 0.591301
0.192047 0.0518443 0.566468
0.196035 0.0221467 0.563344
0.162988 -0.098927 0.567201
0.168869 0.00423331 0.569277
0.100213 -0.0183581 0.579529
0.0298443 -0.0347691 0.598161
0.155895 -0.0597005 0.569542
0.170326 -0.0197404 0.567594
0.0599086 -0.0573969 0.589735
0.107882 -0.0118387 0.574267
0.0466727 -0.0574984 0.593932
0.155286 0.0334344 0.573817
0.177686 -0.0737152 0.563027
0.0831899 0.0303006 0.581994
0.0398191 -0.0425948 0.595893
0.190938 -0.00986875 0.563483
0.132369 -0.124887 0.573483
-0.00171889 -0.0537285 0.606834
0.0527562 -0.00895415 0.591574
0.183874 -0.0325037 0.565049
0.141971 -0.120672 0.570373
0.056306 -0.0238874 0.590318
-0.0967783 -0.109684 0.697336
0.116487 -0.0203154 0.57557
0.161268 -0.116727 0.564135
0.0572723 -0.0626968 0.590843
0.0586178 -0.0329498 0.594161
0.050976 -0.00677709 0.592208
0.0331884 -0.114604 0.597133
0.153597 -0.109559 0.570848
0.15322 -0.0486451 0.571094
0.0538674 -0.0586143 0.592024
0.16477 -0.0738966 0.56665
0.149165 -0.0996864 0.570076
0.156713 -0.0968677 0.568236
0.154709 -0.0997342 0.569508
0.188308 -0.048465 0.562154
0.195735 0.0191402 0.565139
0.0289657 -0.0257943 0.599176
0.155704 -0.0997646 0.568843
0.157589 -0.0995829 0.568924
0.180551 -0.0777851 0.564402
0.184351 0.0273855 0.568319
-0.0206114 -0.0512258 0.638182
0.183256 -0.0738081 0.562258
0.196118 -0.00704935 0.561635
0.0998605 0.00827722 0.582939
0.159371 -0.0994841 0.567243
0.160024 -0.102941 0.56852
0.0378825 -0.0487249 0.596059
0.0706614 -0.0167996 0.587891
0.138345 -0.0567239 0.57368
0.139057 -0.119587 0.572945
0.163084 -0.0615976 0.56758
0.142453 -0.124964 0.571126
0.173397 -0.0989545 0.564223
0.100815 -0.0117129 0.580125
0.167126 -0.0787032 0.567093
0.0480837 -0.0497627 0.593213
0.175961 -0.0334026 0.565433
0.180091 -0.0307535 0.565092
0.0809085 -0.0100021 0.587271
0.186775 0.0681869 0.567429
0.0879124 -0.0176707 0.585106
0.0418998 -0.00386931 0.590271
0.143832 -0.113787 0.57035
0.166658 -0.0969423 0.566098
0.09404 -0.00775251 0.583984
0.0900275 0.0313319 0.584393
0.184675 -0.0538406 0.562152
0.0439197 -0.0418666 0.594301
0.0811254 0.0215873 0.582291
0.0661203 -0.0489521 0.585354
0.177878 -0.0536627 0.565089
0.160508 -0.100927 0.567115
0.165603 0.0081675 0.57002
0.106234 -0.00487877 0.579695
0.141557 -0.0993759 0.571681
0.0699521 -0.0568437 0.581989
0.156889 0.0827529 0.576439
0.17283 -0.0420074 0.566377
0.179869 -0.0797541 0.563026
0.161658 -0.0589119 0.568324
0.144213 -0.104371 0.569914
0.162942 -0.0538421 0.568303
0.164114 -0.0981365 0.567929
0.0798966 0.0152838 0.588763
0.15718 -0.0994743 0.568864
0.172905 -0.0548129 0.566192
0.170661 0.044423 0.570185
0.0889296 0.0307137 0.584126
0.190941 -0.0427993 0.563015
0.161915 -0.0990002 0.56735
0.154949 -0.0739439 0.570177
0.0933016 -0.0103672 0.585033
0.188138 -0.0601211 0.563823
0.0188071 -0.0355138 0.60117
0.162807 -0.113634 0.565429
0.17883 -0.0268133 0.566188
0.147108 -0.0453227 0.572008
0.145944 -0.125846 0.569772
0.165453 -0.0986216 0.563987
0.189056 -0.0374555 0.56265
0.0273908 -0.0328865 0.5986
0.0934156 0.0294923 0.583856
0.161411 -0.0899643 0.568231
0.0512138 -0.0566436 0.591418
0.0149644 -0.0555721 0.600767
0.17113 -0.0457543 0.566371
0.150905 -0.113919 0.56904
0.065397 -0.0156332 0.589746
0.0581944 -0.0627031 0.590902
0.0668729 -0.0168064 0.588129
0.0608171 -0.0527021 0.587102
0.166323 0.0099521 0.570976
0.157292 -0.0856883 0.567147
0.177697 -0.0726477 0.564911
0.0756449 0.0301695 0.591213
0.0768766 0.0188642 0.591284
0.182855 -0.0148565 0.565963
0.0469769 -0.0577877 0.593121
-0.139436 -0.0415306 0.673552
0.0258943 -0.0220997 0.599773
0.189891 -0.0366971 0.563161
0.186019 -0.0537284 0.564025
-0.0782455 -0.111448 0.656753
0.0887588 -0.0196903 0.584991
0.121225 -0.124733 0.576882
-0.0809494 -0.0926187 0.667858
0.149429 -0.124038 0.569582
0.0628629 -0.0481793 0.588853
0.171208 -0.0481186 0.566631
0.0939993 -0.00576955 0.583197
0.0621061 -0.0547368 0.58412
0.148246 -0.116905 0.570696
0.137127 -0.0996817 0.572306
0.138213 -0.099924 0.57313
-0.000798654 -0.0915625 0.623081
0.0226096 -0.0409588 0.598997
0.0382335 -0.0396992 0.595584
0.153033 -0.0376377 0.572049
0.15863 -0.0991675 0.568791
0.164834 -0.0657399 0.567881
-0.0226265 -0.0517317 0.648663
0.155546 -0.0658938 0.570059
0.0952336 -0.0109508 0.583899
0.166111 -0.0928673 0.566231
0.125518 -0.124259 0.574691
0.158521 -0.0524795 0.569455
0.155328 -0.0739894 0.569619
0.178761 -0.052924 0.565815
0.0610144 -0.048702 0.588272
0.177118 -0.0927372 0.563072
0.07794 -0.0134542 0.587778
0.0400425 -0.0478964 0.594408
0.187856 -0.059804 0.563123
0.181012 -0.0697217 0.562507
0.0338478 -0.0304773 0.597875
0.178165 0.066819 0.570148
0.0250025 -0.0274124 0.600695
0.150623 -0.111017 0.570759
0.152583 -0.123822 0.569267
0.179281 0.0754635 0.570886
0.0389586 -0.0616855 0.595164
-0.0151255 -0.108181 0.64338
0.169854 -0.0530153 0.567001
0.159088 -0.108727 0.567279
0.159162 -0.109209 0.565977
0.176942 -0.0528269 0.565298
0.023806 -0.0470715 0.594079
0.0868651 0.00825921 0.586182
0.178618 -0.0305592 0.566906
0.1856 0.0565495 0.567649
0.104066 -0.0160623 0.575984
0.182771 -0.0598049 0.564048
0.176894 -0.0508045 0.565962
0.0800031 -0.0248631 0.58694
0.0309559 -0.0216991 0.598133
0.140323 -0.121701 0.56967
0.0440332 -0.0578684 0.593529
0.0368418 -0.0599096 0.595317
0.140429 -0.123856 0.570101
0.182987 0.0253561 0.567279
0.171049 0.0742962 0.570987
0.0476372 -0.026754 0.596397
0.106323 -0.00397191 0.578544
0.166427 -0.0542388 0.56631
-0.0650054 -0.09685 0.656753
0.174027 -0.0507225 0.566271
0.196985 0.00511012 0.564286
0.160912 -0.0768192 0.568335
0.145026 -0.121399 0.569637
-0.124131 -0.00852678 0.679345
0.138093 -0.0995414 0.572633
0.164141 -0.0858904 0.567514
0.168318 0.0699108 0.573754
0.127211 -0.111667 0.575631
0.141471 -0.123736 0.56955
0.0468934 -0.0228382 0.594784
0.172834 -0.0645892 0.5662
0.158443 -0.0755429 0.570233
0.0300164 -0.0485133 0.595442
0.0949853 -0.0295771 0.585159
0.164811 -0.0698399 0.567802
0.169655 -0.0137486 0.568541
0.0451911 -0.00884838 0.589623
0.19608 0.0223747 0.564199
0.162661 -0.0984657 0.566445
0.173111 -0.0980397 0.565002
0.173797 -0.0979123 0.5641
0.164805 -0.0858095 0.567174
0.164636 -0.0657976 0.567535
0.176807 -0.0924773 0.562081
0.152441 0.0630955 0.576519
0.0798941 -0.010545 0.58651
-0.0542556 -0.0852923 0.654034
0.158961 -0.10752 0.567873
0.0499047 -0.0574924 0.592816
0.145636 -0.126607 0.570104
0.178891 -0.074763 0.564071
0.184827 -0.0708087 0.563058
0.110956 -0.00386855 0.578015
0.175922 -0.0458444 0.566449
0.179895 -0.0188794 0.566213
0.184153 -0.0738574 0.564113
0.173622 -0.0865981 0.564478
0.161175 0.0241662 0.572086
0.010157 -0.0488108 0.604205
0.160395 -0.112076 0.565682
0.180768 -0.0777464 0.562292
0.0713027 -0.0485244 0.58567
0.17196 0.0100669 0.569118
0.157176 -0.0868276 0.56885
0.197729 -0.0278707 0.562915
0.178335 -0.0780736 0.565081
0.140719 -0.0898475 0.572478
-0.0545937 -0.141752 0.654034
0.154607 -0.0912841 0.569134
0.184703 -0.0715932 0.563124
0.140798 -0.0900951 0.572798
0.0588425 -0.0489241 0.590161
0.0368755 -0.0318319 0.596235
0.0798153 -0.0289104 0.58621
0.181818 -0.0219695 0.564559
0.10906 -0.0167239 0.574845
0.160007 -0.0929153 0.567418
0.190305 0.0148603 0.566804
0.0557189 -0.0618588 0.591103
0.039569 -0.0351851 0.595605
0.104878 -0.0197413 0.579098
0.0261761 -0.0202177 0.599128
0.161161 -0.0947761 0.568904
0.174182 0.0666918 0.571584
0.172886 -0.0655341 0.565893
0.149993 -0.0734526 0.571169
0.0521358 -0.0610821 0.591473
0.141714 -0.0989833 0.571121
0.158082 -0.09833 0.567351
0.13325 -0.11425 0.572172
0.158627 -0.0983956 0.56773
0.15132 -0.0956651 0.568945
0.159077 0.0533358 0.574118
0.164104 -0.0975751 0.566375
0.172096 -0.0636966 0.565378
0.166749 -0.0981667 0.566409
0.13968 -0.0107935 0.575515
0.166967 -0.0979509 0.565164
0.186884 -0.04381 0.563205
0.09501 -0.00655878 0.582528
0.170001 -0.0976531 0.564568
0.156053 -0.116569 0.566198
-0.0420846 -0.0572313 0.654034
0.163795 -0.0120662 0.570052
0.181171 0.0563387 0.568484
0.1029 -0.00689882 0.57948
0.141213 -0.126092 0.570888
0.186814 -0.0358544 0.564153
0.192969 -0.0297796 0.56233
0.0849165 0.0101182 0.586299
0.161101 -0.0761459 0.568865
0.163892 -0.0957529 0.567287
0.182889 -0.0706784 0.562022
0.0926703 -0.00612164 0.583914
0.0148979 -0.0550003 0.600175
0.171031 0.0728131 0.57093
0.183659 0.0301662 0.568129
0.166918 -0.105808 0.564999
0.18596 -0.0648908 0.563229
0.0851392 0.00659175 0.587139
0.145376 -0.116733 0.569854
0.191211 0.0328839 0.566883
0.0379099 -0.0387827 0.596144
0.180448 0.0676013 0.571779
0.187073 -0.0356167 0.563467
0.0778646 0.0294342 0.58721
0.164757 -0.0956496 0.567109
0.166893 0.042045 0.571917
0.189555 -0.0552336 0.561543
0.163987 -0.0780429 0.56698
0.0910759 0.0244515 0.582404
0.150543 -0.0726235 0.570455
0.059805 -0.0567531 0.588118
0.107938 -0.0128097 0.574211
0.189912 0.0462073 0.567965
0.0399343 0.109424 0.630541
0.153426 -0.107609 0.56912
0.106903 -0.0236965 0.578215
0.142534 -0.105244 0.571452
0.181824 -0.0196137 0.566055
0.171925 -0.0818275 0.565455
0.0475312 -0.0146149 0.593789
0.182182 0.0272328 0.568198
0.178882 -0.0119235 0.567002
0.182335 0.0269075 0.567531
-0.0490474 -0.134705 0.630541
0.0999712 0.0185835 0.582486
0.181675 -0.0455116 0.56578
0.174112 -0.0194112 0.566548
0.113647 -0.0155735 0.576256
0.150623 -0.122045 0.568531
0.164227 -0.0386018 0.568827
0.127442 -0.0994151 0.575328
0.0762586 0.0293534 0.587114
-0.0441583 -0.0926588 0.630541
0.166988 -0.0541277 0.568216
0.183028 -0.0407074 0.564242
0.0200782 -0.0623258 0.602009
0.166541 -0.0979237 0.566697
0.187918 -0.0578112 0.563003
0.177213 -0.0915202 0.56245
0.175878 -0.0757266 0.564461
0.180989 -0.0500513 0.564479
0.160051 -0.108098 0.567055
0.183176 0.00440537 0.566203
0.157575 -0.116756 0.567109
0.0988859 -0.0168613 0.581037
0.0828689 -0.0157965 0.586107
0.0518928 -0.055799 0.592189
0.156469 -0.106542 0.567351
0.165422 0.0269687 0.571942
0.119983 -0.0127736 0.575372
0.0829751 -0.0288188 0.586144
0.0778258 -0.0608997 0.589214
0.177976 -0.018819 0.566355
0.0368443 -0.0566517 0.595359
0.0960731 -0.00445136 0.582584
0.0519739 -0.0627529 0.591371
0.0527172 -0.00988327 0.592281
0.191081 -0.0307895 0.562192
0.165749 -0.094018 0.566993
0.195958 -0.0366707 0.562323
0.169672 0.0647065 0.572317
0.176733 -0.0358283 0.566816
0.0481349 -0.0267735 0.596835
0.185936 -0.0318225 0.563332
0.173978 -0.0336165 0.567068
0.0242033 -0.034849 0.599357
0.0736129 -0.017842 0.587193
0.197683 -0.0285916 0.562786
0.0407489 -0.00147016 0.594852
-0.043572 -0.0127835 0.646011
0.19485 -0.0219575 0.563004
0.156522 -0.102764 0.567545
0.160967 -0.0556809 0.569082
0.185071 -0.0667343 0.563061
0.0510693 -0.0166974 0.595078
0.0708964 -0.0527131 0.582333
0.153629 -0.112945 0.569325
0.189893 -0.000724686 0.565053
0.171965 -0.0397969 0.567001
0.0399636 -0.0198149 0.596324
0.187771 -0.0596169 0.562503
0.0930283 -0.0106885 0.58332
0.171196 -0.0987388 0.564658
0.153282 -0.0789553 0.570041
0.197789 -0.0245318 0.563086
0.0290288 -0.0607562 0.597285
0.142235 -0.103428 0.57203
0.186747 -0.0469499 0.564904
0.19206 0.0469781 0.567228
0.178924 -0.0237569 0.56642
0.155191 -0.094747 0.56697
0.152056 -0.0872209 0.569498
0.165992 -0.043511 0.568426
0.172049 -0.0389205 0.567472
0.180127 -0.0289598 0.564291
0.0190447 -0.0508352 0.594998
0.18308 -0.0796665 0.563952
-0.0174535 -0.0346815 0.64338
0.148697 -0.0774495 0.570163
0.185921 -0.0315881 0.564347
0.172985 -0.00883037 0.568298
0.185179 -0.069953 0.563981
0.0139647 -0.0586191 0.602291
-0.0398188 -0.141187 0.628926
0.177678 -0.0395323 0.565315
0.173594 0.0388526 0.570621
0.0773009 0.0183613 0.589857
0.133336 -0.0899591 0.573819
0.031858 -0.055827 0.595344
0.16155 -0.105926 0.565632
0.151858 -0.0914 0.569857
0.180088 -0.0617015 0.564282
0.176544 -0.0638401 0.564493
0.161338 -0.0139579 0.571092
-0.090841 -0.0579195 0.635615
0.191858 0.040015 0.5662
0.186766 -0.0126058 0.565073
0.124542 -0.0284896 0.578435
0.0239392 -0.0578735 0.597408
0.0379086 -0.0587948 0.595316
0.0347694 -0.0297514 0.59778
0.182321 0.0266121 0.567488
0.0518508 -0.0607215 0.592098
0.158954 -0.113973 0.567846
-0.107801 -0.0719632 0.629131
0.183352 0.0242853 0.567955
0.183912 -0.0647564 0.563263
0.19393 0.0215137 0.564563
0.0268286 -0.0320258 0.599866
0.183921 -0.0368943 0.564298
0.0788771 0.0281712 0.585072
0.166394 -0.0926986 0.565202
0.176941 -0.0328406 0.566326
0.178961 0.0474523 0.569399
0.179018 -0.0638117 0.564242
0.149628 -0.106389 0.568102
0.144371 -0.0978498 0.570537
0.163763 -0.104669 0.566209
0.150604 -0.0976409 0.568462
0.0431252 -0.00983699 0.589505
0.165073 -0.0969564 0.566181
0.171024 -0.0967051 0.565054
-0.0152103 -0.105138 0.633068
0.150925 -0.105389 0.567459
0.167457 -0.0618293 0.568813
0.182957 -0.0248839 0.564471
0.16989 0.0361944 0.570565
0.0479206 -0.00778558 0.589924
0.178996 -0.0508527 0.564929
0.148772 -0.0110371 0.572719
0.0107779 -0.0541014 0.603994
0.183594 -0.0660745 0.562401
0.151929 -0.101561 0.569022
0.154512 -0.0890456 0.569871
0.186551 -0.0458618 0.564092
0.175913 0.0452198 0.570012
0.0600061 -0.0298826 0.589196
0.099033 -0.00489308 0.581397
0.153646 0.0566223 0.57434
0.0299444 -0.0465372 0.597073
0.170906 -0.100587 0.563894
0.178045 -0.0527011 0.564472
0.1653 0.0685798 0.572546
0.183118 0.0242541 0.567231
0.042967 -0.000701512 0.594909
0.0589437 -0.0555205 0.589232
0.173955 -0.0307246 0.566356
0.0417395 -0.0150387 0.594361
0.0192953 -0.0428311 0.597041
0.15796 -0.110665 0.567442
0.0722537 -0.0228524 0.587248
-0.033021 -0.111081 0.648663
0.124728 -0.110054 0.576532
0.118573 -0.0988148 0.577033
0.0898478 0.0253479 0.582249
0.0686336 -0.0605675 0.583569
0.140586 -0.097942 0.571936
0.0383304 -0.0477994 0.595495
0.150685 -0.0973991 0.568766
0.140988 -0.117544 0.572369
0.153708 -0.0973587 0.56853
0.154581 -0.0974456 0.569037
0.158715 -0.0972756 0.568044
0.156819 -0.0917894 0.56862
0.198864 -0.0121293 0.561602
0.0549296 -0.063118 0.591928
0.0714369 -0.0509132 0.581831
0.172905 -0.0966719 0.564519
0.110855 -0.0255494 0.579566
0.156039 -0.0755209 0.570067
0.138206 -0.116213 0.573103
0.184966 0.00835813 0.566963
0.157714 -0.0860516 0.56761
0.095017 -0.0115282 0.582572
0.0778458 -0.0588064 0.587069
0.0816783 0.0342018 0.586987
0.179114 0.0261444 0.568481
0.0368732 -0.0126838 0.596197
0.083325 -0.0307418 0.587186
0.0515829 -0.0628352 0.592146
0.16444 0.0629669 0.57264
0.0527892 -0.00979466 0.593088
0.06351 -0.0183601 0.589208
0.183956 -0.0318326 0.56351
0.184133 -0.0614089 0.562271
0.162115 -0.0984898 0.566583
0.178892 -0.0699445 0.564304
-0.0649493 -0.0341079 0.626729
0.165897 -0.0936752 0.566248
0.195118 -0.00270179 0.563149
0.154545 -0.0393452 0.571081
0.1958 -0.036766 0.563226
0.176931 -0.035714 0.566332
0.181197 -0.0846471 0.562179
0.187041 -0.0450524 0.564911
0.0595541 -0.0555216 0.589244
0.100934 -0.0266815 0.581387
0.0135594 -0.0586619 0.602732
0.175708 0.0450597 0.570783
0.178097 -0.0816282 0.563406
-0.0527067 -0.0709325 0.64338
0.0797272 -0.0258407 0.586175
0.181935 -0.0167631 0.566134
0.164877 -0.0347925 0.569043
0.165278 0.0762414 0.574525
0.177936 -0.0527326 0.565405
0.165265 0.0684426 0.5714
0.165731 0.00759082 0.57097
0.182954 -0.036628 0.565028
0.172345 0.0741779 0.572351
0.166711 0.0563741 0.573326
0.18403 -0.036741 0.56508
0.114994 -0.0106592 0.576287
0.172895 -0.0898852 0.564965
0.141515 -0.106621 0.570914
0.0598807 -0.0223291 0.589461
0.168311 -0.0497821 0.567233
0.0698504 -0.0622026 0.586185
-0.0581436 -0.111494 0.654034
0.152002 -0.100874 0.569296
0.167893 -0.0657244 0.566482
0.0189777 -0.0458392 0.594825
0.161749 -0.0994136 0.566841
0.179702 0.0426815 0.56663
0.0849462 0.0111828 0.586505
0.175033 -0.0447997 0.566331
0.180831 -0.0208244 0.566154
0.160837 -0.078702 0.567242
0.163166 -0.0547139 0.568204
0.163834 -0.0969701 0.567975
0.183927 0.000210325 0.566111
0.0758388 0.0281302 0.587978
0.057125 -0.0576614 0.589323
0.187864 0.056065 0.569061
0.142268 -0.105451 0.570974
0.153309 -0.0572216 0.569777
0.153586 -0.117956 0.570076
0.169584 0.0773616 0.574022
0.165885 -0.0965314 0.567123
0.173738 -0.0978659 0.565095
0.169819 -0.0963681 0.564449
0.176768 -0.0768589 0.564741
0.180005 -0.0489159 0.565127
0.163307 -0.0914722 0.566655
0.18694 0.0133111 0.5661
0.171024 -0.0960154 0.564091
0.173983 -0.0958206 0.564233
0.137794 -0.115571 0.571394
0.0811858 0.0113373 0.589284
0.15624 -0.0753231 0.570801
0.154708 -0.0234287 0.571681
0.13787 -0.116013 0.572117
0.079945 0.0298354 0.584666
0.151758 -0.0926325 0.568382
0.189006 0.0222391 0.566047
0.177841 -0.0536003 0.564212
0.168202 0.071094 0.571345
0.0998379 -0.0148966 0.580835
0.165702 0.00788458 0.57087
0.166186 -0.0962532 0.565488
0.17398 -0.0960818 0.565168
0.186826 -0.0114575 0.56426
0.169835 -0.0508113 0.567263
0.144028 0.00586157 0.575055
0.0799275 -0.0177669 0.586384
0.014013 -0.0595513 0.604381
0.188034 -0.0607361 0.563219
0.170974 -0.100063 0.565132
0.168711 0.0732893 0.574082
0.194973 -0.0152023 0.56252
0.0660501 -0.0278071 0.584198
0.0301975 -0.0506106 0.595977
0.0185791 -0.062205 0.603857
0.151469 -0.062615 0.570613
0.036881 -0.03043 0.596947
0.184399 0.0230217 0.565763
-0.0813155 -0.107978 0.630541
0.0718016 -0.0487224 0.585624
0.171884 0.0328802 0.569355
0.0291542 -0.0577658 0.596694
-0.00341574 -0.107 0.630541
0.185934 -0.032841 0.563324
0.185521 -0.0564925 0.562516
0.161365 -0.0861408 0.570143
0.1083 0.00351058 0.579523
0.188514 -0.0275333 0.564947
0.164167 0.0816255 0.574795
0.157533 -0.0962107 0.56696
0.0295462 -0.0613321 0.598386
0.184855 -0.0347868 0.564181
0.160221 -0.0959477 0.567138
0.0357034 -0.0499703 0.594467
0.192706 0.0313794 0.563544
0.193776 -0.0337784 0.562928
0.0288782 -0.0448099 0.597363
0.168832 -0.0960806 0.566193
0.168891 -0.0955552 0.565249
0.161243 -0.0757864 0.567641
0.174892 -0.0379498 0.566228
0.180958 -0.0298176 0.565977
0.0336263 -0.0166652 0.597601
0.0198663 -0.0507093 0.594125
0.0516809 -0.0170545 0.596812
0.198805 0.0203563 0.563492
0.0458121 -0.015781 0.593389
0.0588527 -0.05878 0.588322
0.0368489 -0.0296328 0.596427
0.155846 -0.102819 0.569148
0.0748781 -0.0246554 0.58601
0.0827676 -0.0139291 0.585391
0.142921 -0.11047 0.569462
0.180958 -0.0748106 0.564154
0.191452 0.0321427 0.56673
0.190221 0.0288667 0.565682
0.0898802 -0.0257524 0.584171
0.150988 -0.11469 0.568248
0.107873 0.00928005 0.581255
0.0467826 -0.0216283 0.595332
0.180929 -0.0598388 0.564367
0.175885 -0.0700837 0.564251
0.0978973 -0.00969338 0.5809
0.193736 -0.0296853 0.561462
0.0639879 -0.0559046 0.583253
0.168598 -0.00493753 0.56919
0.188951 0.0251787 0.566259
0.141313 -0.0995163 0.572489
0.183916 0.0232269 0.567204
0.160813 -0.0910059 0.569235
0.0355995 -0.00871536 0.596157
0.170986 -0.100015 0.564449
0.17103 -0.0567625 0.566873
0.19485 -0.0147628 0.563186
0.0683815 -0.0476903 0.586582
0.167516 -0.0673215 0.568016
0.186705 0.00693543 0.565661
0.169876 -0.0546467 0.56629
0.171282 -0.0549731 0.567847
0.194779 -0.0169962 0.56308
0.159048 -0.08981 0.568185
0.0995553 -0.00439754 0.582108
0.177868 -0.0674365 0.564066
0.093656 -0.00355334 0.583473
0.0436427 -0.0456603 0.594898
0.180199 0.0114817 0.566351
0.175877 -0.0717769 0.566103
-0.0912658 -0.112512 0.665046
0.144607 -0.100566 0.570887
0.0389732 -0.0123109 0.591237
-0.0334023 -0.106674 0.630541
0.163275 -0.0553383 0.568583
0.163709 -0.0961023 0.568052
0.168556 -0.0955207 0.564614
0.165942 -0.0676155 0.567404
0.0749928 -0.026785 0.586117
0.0813488 0.0113176 0.58826
0.152432 -0.0660605 0.569802
0.162809 -0.0890334 0.567166
0.100962 0.0152846 0.58299
0.185692 -0.0238768 0.564805
0.0727893 -0.0506774 0.586061
0.189857 0.0484138 0.567216
0.172261 0.0566945 0.572073
0.185391 -0.0321202 0.563445
0.0819619 -0.0286145 0.585579
0.0718837 -0.0168011 0.587945
0.16175 -0.101796 0.567874
0.171276 -0.0904706 0.565886
0.0738903 -0.0305709 0.58779
0.193657 -0.0297327 0.562357
0.177577 -0.0503988 0.565924
0.170868 -0.093781 0.566151
0.187932 0.0393852 0.567245
0.155762 -0.0900947 0.569055
0.177976 -0.0549896 0.565002
0.19175 0.0441957 0.566141
0.187961 -0.0667614 0.563291
0.155519 -0.0904188 0.569243
0.0481185 -0.0166875 0.594725
0.195763 -0.0117428 0.563958
0.16615 0.00954868 0.570383
0.0377576 -0.0564825 0.596171
0.0809331 0.0123998 0.589108
-0.122202 -0.0646841 0.673552
0.182598 0.026567 0.566526
0.172938 0.0160792 0.568464
0.0450585 -0.0418621 0.594239
0.115051 -0.0118412 0.575831
0.0359769 -0.0587937 0.59539
0.185804 0.0718867 0.568272
0.0439399 -0.00880278 0.590215
0.162692 -0.08862 0.568087
0.0776728 0.0261239 0.58729
0.181123 0.0372375 0.569122
0.197854 -0.0216265 0.561963
0.149764 0.0630977 0.57654
0.136125 -0.125367 0.574323
0.0501833 -0.047041 0.593695
0.0964785 -0.0293739 0.584127
0.168649 -0.00170302 0.569859
0.149804 -0.105736 0.569331
0.172568 -0.0200216 0.567248
0.187176 -0.0521462 0.562682
0.190938 -0.0259393 0.563313
0.0389881 -0.0117805 0.591464
0.189925 0.0491786 0.567243
0.185949 -0.0309995 0.56337
0.144034 -0.0963971 0.571541
0.155384 -0.106602 0.567674
0.0251446 -0.0628037 0.601618
0.172727 -0.0517728 0.566234
0.0655077 -0.0646752 0.588003
0.0450523 -0.00485354 0.5903
0.173064 -0.0954617 0.565995
0.163877 -0.103872 0.565591
0.173971 -0.0948661 0.564193
0.174782 -0.0946852 0.563984
0.0868497 -0.0293852 0.584353
0.193843 -0.0368026 0.561563
0.174673 -0.0950636 0.563634
0.0409657 -0.0506023 0.59443
0.173637 -0.0545707 0.565957
0.045976 -0.0515528 0.594054
0.0631143 -0.0174213 0.58836
0.159773 -0.0930355 0.568152
0.037648 -0.0572404 0.594441
0.196795 0.0241695 0.565248
0.0389497 -0.0418007 0.595551
0.165881 0.00921632 0.571105
0.158324 0.0660682 0.575157
0.172379 0.0131429 0.568561
0.0925098 0.0228524 0.583853
0.0668566 -0.0295076 0.584384
0.0489745 -0.0467548 0.593179
0.0878836 0.0220351 0.582198
0.0611016 -0.0555987 0.583659
0.0940476 -0.00438345 0.583564
0.144797 -0.126462 0.569893
0.177826 0.0700434 0.570006
0.150833 -0.106073 0.568769
-0.067779 -0.0677119 0.654034
0.0610187 -0.0265794 0.58576
0.0419476 -0.0457848 0.595032
0.159834 -0.0915247 0.568193
0.185797 -0.0410694 0.563351
-0.0284286 -0.108181 0.64338
0.0608674 -0.0539375 0.585275
0.0350664 -0.0239751 0.597575
0.157212 -0.0954927 0.567919
0.198755 -0.0154593 0.561295
0.0498956 -0.0587884 0.593009
0.159537 -0.114264 0.567833
0.164786 -0.0948113 0.566304
0.166968 -0.0946111 0.566157
0.166895 -0.0948003 0.56554
0.161203 0.0238965 0.57271
0.171224 -0.0948793 0.564271
0.183354 -0.0525088 0.563451
0.0399309 -0.0269472 0.596413
0.164728 -0.0939893 0.567261
0.0430274 -0.0318268 0.595178
0.0694312 -0.0253849 0.582667
0.185709 0.0450566 0.568881
0.18184 -0.0188877 0.566219
0.075929 -0.0216836 0.587108
0.182836 0.0266016 0.567264
0.168244 -0.000523418 0.568491
0.175789 -0.0547312 0.565348
0.180716 -0.0746723 0.564763
0.183792 0.0279901 0.565694
0.172977 -0.0358555 0.567245
0.144506 -0.0957273 0.57107
0.191155 -0.0577023 0.561556
0.188732 0.0101099 0.566041
0.147051 -0.0794311 0.570637
0.147745 -0.0956266 0.570469
0.0919171 0.0182568 0.584883
0.0548749 -0.0556807 0.591338
0.0480289 -0.0507151 0.593145
0.0897037 0.0133417 0.585895
0.185657 -0.0655031 0.562487
0.0988517 -0.0126338 0.580333
0.0832068 -0.0118844 0.585287
0.151226 -0.0954975 0.569699
0.095817 -0.0295188 0.585005
0.158278 -0.0953106 0.568584
0.164863 -0.0529624 0.568318
0.176819 -0.0705014 0.563511
0.159242 -0.0950372 0.567829
0.154147 -0.0714744 0.570698
0.195805 0.0181398 0.564919
0.163101 -0.0948917 0.566959
0.0998772 0.0182145 0.583067
-0.065208 -0.0921846 0.662259
0.182782 -0.0380388 0.564833
0.118077 -0.011608 0.575863
0.117403 -0.106321 0.575684
0.163856 -0.0948001 0.567288
0.161931 -0.076983 0.567377
0.078972 -0.0227443 0.586417
0.165106 -0.0948026 0.567303
0.0478835 -0.042905 0.593084
0.170098 -0.0140549 0.569042
0.0949972 -0.0268161 0.583005
0.170171 -0.0945912 0.565455
0.16095 -0.0395095 0.569195
0.174801 -0.0945661 0.565305
0.173538 -0.0319524 0.565631
0.16073 -0.0928477 0.567901
0.139222 -0.1192 0.571798
0.076992 -0.030738 0.587115
0.138267 -0.0304446 0.575824
0.0907375 -0.0100655 0.585075
0.168767 -0.094756 0.566023
0.0412124 -0.017695 0.594146
0.188034 -0.0287296 0.56264
0.0340883 -0.0309302 0.596675
0.189175 0.0212614 0.565615
0.0575551 -0.0288605 0.592181
0.159395 0.0617114 0.574731
0.0275576 -0.0594989 0.595517
0.194777 -0.025771 0.562277
0.0695645 -0.0664476 0.588895
0.0608147 -0.0637878 0.589231
-0.0265495 -0.0334117 0.638182
0.155709 0.0854412 0.576483
0.138532 -0.0565035 0.574453
0.146865 -0.0954747 0.572211
0.172852 -0.0938224 0.564347
0.1641 0.0778018 0.575082
0.184791 -0.0326996 0.563392
0.190467 -0.0155644 0.565112
0.0387413 -0.0217361 0.597085
0.181158 0.0588762 0.57029
0.17026 0.00580829 0.569828
0.0432089 -0.0445191 0.594853
0.10334 -0.0168817 0.580268
0.173833 -0.0910786 0.564217
0.194927 -0.00482335 0.563228
0.170664 0.0533123 0.570689
0.179578 -0.00914113 0.565316
0.181037 -0.0734877 0.565008
0.189797 -0.0455676 0.562261
0.160566 -0.0734647 0.56784
0.133795 -0.117984 0.574514
0.194471 -0.0262626 0.56275
0.141908 -0.102264 0.571308
0.0699567 -0.0663864 0.588353
0.0869159 -0.0166501 0.585307
