ply
format ascii 1.0
comment Created by Open3D
element vertex 1960
property double x
property double y
property double z
end_header
-115.253 -4.72721 525.905
-128.327 -20.9158 525.728
-75.5777 9.09968 526.432
62.4555 3.04643 528.279
-61.5416 55.0311 526.616
-127.501 -28.8986 525.729
112.523 -38.6301 528.943
108.495 -8.85714 528.886
26.4733 53.3374 527.788
68.3125 11.1877 528.346
-127.774 -11.8321 525.719
-32.0628 58.5007 527.001
-39.046 49.1408 526.907
-71.5967 11.1779 526.471
111.826 -42.9211 528.923
-38.6778 56.8346 526.903
-121.002 -6.51147 525.794
-123.653 -30.8268 525.753
-65.5881 21.0739 526.53
-120.816 -26.8828 525.786
110.432 70.6163 528.88
-27.3183 3.0394 527.027
-115.375 -1.09742 525.843
-67.315 16.8879 526.484
-80.5197 19.0178 526.306
-123.921 -5.22601 525.721
106.817 70.6061 528.804
-126.112 -28.8957 525.677
-63.6945 39.1092 526.503
65.0305 41.2126 528.225
-63.4586 58.9971 526.504
-65.2922 23.1587 526.473
-117.326 -22.2942 525.774
-26.5432 -6.89397 526.982
-16.0626 21.8072 527.122
-61.6037 57.0168 526.505
-125.006 -31.0961 525.653
-117.538 -0.821948 525.734
-121.159 -4.51787 525.683
-27.782 -64.6925 526.929
-21.5779 -11.0337 527.013
104.47 -6.86109 528.697
52.2487 47.0558 527.997
106.616 53.6164 528.724
52.1933 49.2116 527.995
-125.546 -9.62813 525.612
7.1242 22.9227 527.389
-29.3671 5.38336 526.899
110.34 53.5055 528.769
-73.6299 9.09737 526.301
22.0433 53.3165 527.581
-77.4789 9.09632 526.241
-69.4176 13.2532 526.348
19.2792 50.5494 527.531
-37.2893 39.5823 526.77
17.6209 -35.6246 527.502
-67.3919 57.052 526.364
102.632 -11.0674 528.639
108.46 70.5941 528.714
100.41 -16.8787 528.602
-80.5003 22.3192 526.179
17.6206 4.69904 527.493
100.41 -14.9415 528.601
-31.5011 9.10642 526.833
-31.5007 -33.5932 526.833
102.907 55.0832 528.63
106.514 -40.9635 528.677
-37.4849 41.0185 526.748
100.527 -30.9142 528.589
-122.241 -29.4419 525.6
60.492 4.88827 528.043
55.2319 51.6974 527.972
17.0671 46.6761 527.458
-117.025 -4.12448 525.657
56.615 53.1991 527.98
-128.82 -32.1873 525.494
-64.2674 35.2796 526.358
102.455 63.2703 528.585
-77.8813 39.1239 526.168
-25.7648 46.8444 526.865
58.1989 7.01524 527.988
-37.2843 56.9508 526.701
-33.3168 57.0942 526.754
-37.4492 43.0782 526.69
-31.7725 56.8197 526.766
-61.4065 49.0387 526.368
100.397 -18.8138 528.533
6.5705 -12.4193 527.276
-69.8574 53.5497 526.251
-71.5524 51.1127 526.221
-79.6327 10.8691 526.111
-117.288 -19.535 525.603
-61.5356 51.1878 526.351
102.614 -34.8652 528.547
100.394 -13.002 528.514
-80.2118 18.8725 526.094
-128.807 -27.2321 525.442
106.498 -8.85248 528.593
-33.2408 -33.5492 526.719
104.554 68.9134 528.562
104.275 55.0749 528.552
52.2188 43.0785 527.852
104.329 -37.0235 528.546
108.436 -39.02 528.599
-20.4688 30.9001 526.873
100.333 -28.8286 528.485
-37.445 55.0955 526.633
-77.4267 10.5627 526.095
54.2988 53.1141 527.857
-20.4678 28.692 526.846
-69.4813 14.8259 526.188
-26.9612 -4.74604 526.757
-23.3512 -10.923 526.789
-21.9003 36.9093 526.808
-72.779 48.211 526.126
-116.723 0.279037 525.536
60.2001 6.36112 527.906
108.565 53.622 528.554
100.324 -24.9156 528.437
27.8375 54.4084 527.455
-30.0207 54.8801 526.679
-28.7347 51.572 526.691
-27.3569 -1.09933 526.706
103.093 67.0174 528.45
100.374 -21.0226 528.411
-115.617 -1.09675 525.512
-18.2599 -6.89199 526.814
112.414 -34.7553 528.562
27.5597 52.4723 527.425
66.6017 4.93991 527.944
-128.779 -28.8766 525.327
53.5521 19.0705 527.763
-80.4678 20.9332 525.967
-25.3762 -8.74592 526.703
-37.732 45.2462 526.534
8.777 -12.4165 527.155
112.299 -32.9275 528.541
-27.201 49.1797 526.668
102.642 58.8227 528.406
4.99124 -10.6015 527.096
-120.547 -31.6322 525.413
-62.8692 45.1863 526.186
64.5102 4.70251 527.891
-75.7926 43.5184 526.011
-27.2166 -3.16731 526.66
102.64 64.9083 528.4
-21.5666 35.0291 526.735
-37.547 47.1443 526.517
-63.0511 42.9806 526.172
53.5489 17.1351 527.731
52.0725 45.0402 527.704
-80.1868 15.1491 525.93
-26.5262 -34.4637 526.644
102.58 -8.84881 528.373
-120.539 3.02974 525.379
112.289 -36.9091 528.494
53.5463 20.7262 527.706
55.981 10.78 527.737
26.4509 54.5348 527.341
-29.3908 -65.2298 526.591
-123.937 -32.9469 525.323
112.426 -30.895 528.488
-37.6055 53.0209 526.477
100.282 -22.9555 528.321
-35.2491 15.1657 526.506
68.4903 23.7739 527.891
62.646 4.88605 527.812
20.0048 9.48163 527.241
10.9843 34.7785 527.116
25.8974 35.6197 527.314
110.174 -38.9529 528.441
100.415 -26.9118 528.292
-114.129 1.74614 525.417
-80.1229 12.8346 525.872
-35.6687 -65.1041 526.465
67.1417 7.22884 527.843
-35.8889 16.9284 526.459
-125.279 -33.4563 525.259
-115.041 0.278962 525.395
110.427 -15.0286 528.413
10.2245 -10.8278 527.07
-61.2071 52.9173 526.109
-73.6975 10.5858 525.94
68.4835 18.5204 527.838
110.331 -12.9991 528.396
-119.515 0.645636 525.311
-19.569 -8.84119 526.647
-75.432 10.7422 525.897
-127.538 -27.0545 525.199
-126.551 -7.42087 525.212
-115.309 2.7545 525.361
-116.131 -22.5514 525.349
16.5961 5.43166 527.125
9.32675 28.4255 527.022
-74.3998 45.4368 525.9
-27.3476 1.10675 526.526
106.442 -11.0606 528.314
-29.551 7.17089 526.493
-127.642 -28.9598 525.175
-33.3145 55.5286 526.438
-114.207 -3.02176 525.352
-17.8126 23.0559 526.638
-127.296 -30.9987 525.169
-64.5007 32.2267 526.01
-37.6465 48.9494 526.365
-80.1655 24.7802 525.79
23.6825 15.737 527.176
-80.4393 17.3471 525.781
11.534 -8.27418 527.009
-72.0119 49.2908 525.889
-119.958 -29.9719 525.244
-73.0193 47.3616 525.872
-125.604 -28.8126 525.163
51.319 50.5495 527.532
55.7443 51.6599 527.589
-37.6031 51.1928 526.337
-17.7007 20.9585 526.601
-121.326 1.37853 525.211
-23.5794 41.0799 526.52
-27.7302 4.9655 526.462
12.0855 -10.2053 526.992
-70.8173 12.9447 525.879
-121.666 -28.938 525.195
24.3439 54.4876 527.152
-36.9819 36.104 526.324
57.9549 9.39602 527.595
10.5673 -66.6273 526.958
-80.2489 22.8509 525.735
-19.6284 24.9814 526.546
-117.504 -1.22093 525.226
-27.0669 -63.3913 526.434
-63.5916 57.0566 525.946
-115.558 -10.8436 525.246
-127.8 -32.345 525.074
108.52 -11.1379 528.238
-29.6364 53.0735 526.388
-65.0388 25.0612 525.908
25.8881 36.9866 527.125
106.002 69.8335 528.195
53.5242 54.4118 527.488
21.0749 52.6323 527.05
-36.4275 19.0167 526.277
14.016 3.03869 526.952
106.416 54.4842 528.19
-27.946 50.8803 526.383
-115.989 -8.9605 525.201
4.22021 9.24439 526.811
-67.6004 55.3432 525.84
-35.5792 55.2614 526.268
-119.934 -28.5913 525.138
13.7391 -0.823828 526.919
-23.4834 -9.00009 526.42
-121.302 -1.55392 525.109
62.3716 6.35706 527.569
27.5429 43.6088 527.103
-127.369 -24.8542 525.022
-121.643 -5.21975 525.099
-74.1012 12.3908 525.735
-66.681 19.0004 525.829
22.8481 54.3644 527.029
112.507 53.9344 528.222
-17.1458 13.3265 526.484
17.8785 7.17713 526.951
-20.0843 27.1997 526.437
-31.468 -65.3018 526.283
12.0828 -6.89259 526.867
-70.8005 14.8686 525.753
-34.7714 -33.8858 526.234
5.2769 16.92 526.77
-62.8298 50.6643 525.856
-114.44 -11.2697 525.161
66.9781 9.30384 527.591
27.679 46.917 527.065
110.7 69.831 528.176
27.9827 50.9464 527.067
-76.5682 14.0405 525.664
-31.6737 10.8188 526.264
-123.484 -1.9204 525.032
-119.457 -1.15928 525.086
-29.5397 -33.7511 526.286
-17.9713 1.1064 526.44
102.463 -12.8799 528.052
5.46081 19.0339 526.751
57.9391 52.4749 527.452
-65.3921 56.9292 525.797
14.3745 5.03287 526.859
-125.602 -30.5754 524.984
106.396 -38.9823 528.09
-68.8723 16.2447 525.743
-123.553 -3.06973 525.009
104.455 -8.84331 528.062
6.50882 -10.8625 526.743
9.04627 26.7572 526.774
112.309 69.7821 528.154
103.011 57.1216 528.029
-123.457 -4.9256 524.995
-22.8731 39.1916 526.342
56.8298 9.66881 527.408
12.1729 -66.8377 526.804
54.6169 52.8812 527.372
25.3287 29.342 526.971
-65.2399 55.6645 525.754
5.14471 15.0131 526.69
-127.265 -10.8718 524.915
22.0153 11.8668 526.912
-119.555 -2.97002 525.012
26.432 52.9531 526.962
110.701 -16.7834 528.087
-27.8832 -33.8856 526.23
27.9781 49.0064 526.979
104.443 -11.0541 527.999
-115.626 -14.7311 525.051
-21.1819 33.2561 526.317
-63.3678 55.1503 525.751
-123.31 -30.932 524.943
-33.4068 13.1717 526.147
16.4947 -35.5775 526.805
-18.0595 -3.02696 526.342
-27.6755 9.09585 526.213
-31.4604 55.1267 526.162
62.5381 5.15868 527.42
15.2802 42.866 526.787
-127.567 -18.9579 524.868
13.7349 1.10711 526.759
-33.3869 -65.2825 526.127
-115.509 -19.0322 525.021
102.342 -16.7346 527.938
106.592 -12.989 527.994
-62.8141 47.0732 525.724
12.2367 36.841 526.728
112.128 -28.9576 528.062
111.864 -25.0446 528.057
106.566 -14.9027 527.984
-127.124 -8.95457 524.854
-115.725 -2.79983 525.002
104.534 -34.9011 527.95
8.49272 25.1662 526.665
102.277 -33.0115 527.919
111.957 -26.9722 528.048
8.49292 -11.0263 526.662
-127.509 -23.1036 524.834
102.491 -14.922 527.911
51.289 44.7231 527.223
106.757 -35.2135 527.961
-121.529 -3.01947 524.904
110.526 -37.0161 528.007
-125.035 -5.3271 524.85
103.873 67.7234 527.915
-115.608 -5.43829 524.972
-117.495 -5.06113 524.947
-17.3225 11.2092 526.275
-119.697 -26.8987 524.903
-64.4556 32.7546 525.642
5.22248 13.1196 526.574
-33.3822 14.6016 526.053
106.343 -37.0898 527.916
108.523 -37.0919 527.945
67.8744 12.9822 527.401
-117.41 -8.7906 524.916
107.931 54.6418 527.932
13.0426 38.7463 526.654
-25.3989 -6.88297 526.137
110.724 -18.8621 527.959
111.07 -23.2164 527.961
10.7531 33.0357 526.615
107.742 -21.0028 527.911
-123.487 -8.73412 524.812
-17.3732 19.1725 526.231
-17.6884 -0.547352 526.226
-19.134 23.3538 526.206
6.51119 21.0319 526.548
102.105 -25.1449 527.824
63.9977 42.5218 527.312
60.4028 5.24911 527.262
101.974 -29.234 527.81
-27.6495 7.19023 526.073
5.01706 -8.81772 526.508
-115.531 -17.1102 524.893
-74.8843 44.2962 525.435
-36.4049 21.0242 525.95
26.4238 39.2802 526.791
-123.424 -26.8836 524.781
-17.4117 15.1567 526.195
8.90482 -65.0587 526.543
106.957 -18.8448 527.857
-117.942 -24.7275 524.837
-117.394 -14.8351 524.844
14.5585 7.17253 526.611
18.6962 -36.3034 526.665
101.952 -26.8007 527.78
12.4308 -4.99854 526.581
-123.494 -6.9149 524.757
108.395 -34.7091 527.86
102.004 -30.8533 527.775
22.6085 52.9277 526.711
-127.252 -20.875 524.702
-29.4135 10.6345 526.011
-76.8013 40.9904 525.376
101.744 -18.7311 527.764
108.283 -33.1607 527.85
-128.07 -4.66622 524.678
-117.387 -3.01895 524.813
66.2012 5.24906 527.269
101.85 -21.1619 527.743
106.061 -22.6565 527.799
-127.397 -17.0586 524.669
-35.5199 53.256 525.893
14.391 40.9722 526.559
-119.345 -5.07888 524.764
106.889 -21.4125 527.793
-64.438 36.8727 525.499
106.797 -32.6964 527.791
-17.2258 17.0829 526.128
16.5658 45.023 526.58
-20.9887 31.1292 526.075
4.69901 -6.95538 526.419
111.045 -21.0001 527.843
-78.9895 11.5553 525.293
104.393 -14.7515 527.746
16.4868 7.1718 526.569
56.5209 52.1644 527.104
4.79555 10.9734 526.409
24.4869 52.9488 526.669
-117.401 -18.9044 524.766
27.6328 45.286 526.709
16.4867 -66.7145 526.556
-29.4948 9.04101 525.94
67.854 10.2179 527.242
-23.9603 -6.77123 526.008
-127.35 -12.9059 524.62
54.3999 50.933 527.055
53.0366 50.9434 527.036
108.505 -14.8392 527.778
-121.618 -26.9187 524.692
-70.4748 13.2075 525.377
-117.477 -23.011 524.744
110.759 -35.3684 527.8
8.0296 23.2485 526.424
59.143 7.59317 527.107
112.477 54.5566 527.82
-62.2345 51.1781 525.479
-25.3906 44.8918 525.967
-18.2338 -4.95426 526.061
-66.9026 56.3979 525.407
108.816 69.9133 527.754
67.8491 14.9099 527.204
-117.366 -20.8758 524.72
104.751 -32.8747 527.694
14.5551 -35.556 526.486
-79.8039 28.6036 525.222
20.6972 51.0088 526.569
108.426 -12.9828 527.739
26.416 51.0157 526.641
109.921 -28.4573 527.755
-117.364 -17.0295 524.711
6.55898 -8.81546 526.369
55.0213 13.3036 527.015
104.537 -12.7444 527.675
106.871 -16.8501 527.705
106.594 -25.1388 527.699
-125.651 -11.1079 524.585
104.377 -19.6116 527.664
58.4469 51.0554 527.049
107.7 -18.5079 527.706
20.5032 11.1096 526.536
-66.0733 21.0013 525.376
52.7962 47.0614 526.964
11.7413 35.1181 526.413
64.5255 5.7996 527.113
-79.0657 13.2944 525.189
58.8129 9.10989 527.036
-125.531 -8.70634 524.563
-125.297 -6.78404 524.566
-64.4233 35.2138 525.379
-27.5197 10.8107 525.872
-64.423 58.5953 525.377
60.338 49.0045 527.04
-19.5324 -6.83069 525.969
14.6083 -66.8631 526.425
-25.5932 -5.15897 525.886
-36.3903 23.1262 525.739
4.35335 -5.15286 526.283
110.185 54.4335 527.698
110.462 -30.3883 527.699
59.547 50.5002 527.017
111.016 -32.8753 527.705
106.86 -27.8991 527.649
104.367 -20.899 527.616
103.813 56.0816 527.607
107.967 -25.4131 527.659
-117.512 -12.8516 524.636
65.6265 38.6403 527.088
-123.425 -14.8819 524.551
-21.5328 -9.41338 525.912
-31.2546 53.5018 525.782
107.686 -16.848 527.636
-69.7255 15.4964 525.26
-31.9874 52.0317 525.763
-121.45 -6.91744 524.563
-123.484 -11.0602 524.535
68.3883 22.9104 527.104
108.46 -30.9926 527.637
-79.0818 15.2044 525.122
104.175 -16.4777 527.574
-125.536 -26.8903 524.497
-117.339 -10.983 524.602
-119.53 -8.7849 524.57
62.5997 7.23315 527.008
-115.969 -6.70623 524.614
26.4891 41.0799 526.522
53.4626 33.1076 526.881
66.2961 9.04886 527.046
4.35262 -3.02697 526.216
-19.2606 -5.29677 525.897
-61.8497 49.0545 525.326
24.3128 19.3544 526.472
10.4714 -8.97941 526.287
65.9871 7.14756 527.028
111 -27.6217 527.628
-121.439 -24.9871 524.512
-115.728 -20.91 524.588
101.028 -22.9193 527.49
13.7234 39.9616 526.319
-20.9798 -6.60387 525.851
-26.4826 3.30732 525.777
107.119 -31.7618 527.565
108.226 -26.2378 527.575
-26.4822 -1.64776 525.771
4.07714 7.16607 526.179
18.5756 9.04331 526.373
12.1608 -35.3583 526.284
101.025 -24.5757 527.474
-123.35 -18.9437 524.467
102.87 -17.2118 527.497
-67.8596 17.4068 525.21
22.1047 13.3986 526.413
9.8641 29.2107 526.247
-26.4817 -3.02415 525.76
-36.3823 43.2114 525.625
10.4152 31.1395 526.25
-35.8321 51.4679 525.628
-119.241 -6.86155 524.509
64.5077 7.17739 526.967
53.4558 27.0351 526.814
53.0872 36.9645 526.807
-23.6379 -5.50188 525.778
102.681 -13.5286 527.469
17.9752 47.2066 526.334
106.003 -13.5296 527.51
-123.196 -16.8727 524.441
-24.9675 43.2223 525.756
-62.0249 53.265 525.258
-125.533 -25.0367 524.406
14.5494 9.09705 526.282
-123.178 -25.0385 524.436
53.2169 39.2093 526.792
109.323 -36.1794 527.537
15.927 43.2658 526.285
10.6897 -35.5372 526.208
53.4525 25.1026 526.781
56.7667 11.1626 526.825
-26.4791 10.1882 525.709
-123.611 -12.9008 524.407
-115.877 -12.9719 524.51
4.0768 4.96228 526.117
52.8441 45.2359 526.769
-117.478 -6.91636 524.486
-29.7793 14.0403 525.659
103.043 -32.4904 527.437
-33.6291 53.3921 525.606
53.451 23.4472 526.767
22.819 15.1611 526.352
26.5144 42.8895 526.402
-31.9784 13.4887 525.614
12.9495 -1.26352 526.215
60.4931 7.31356 526.847
-121.689 -23.0598 524.406
53.0196 43.0584 526.746
-72.6319 46.7388 525.062
-123.406 -28.8246 524.382
-119.499 -10.9795 524.434
18.8047 48.8382 526.286
-20.9757 29.7332 525.75
-123.311 -20.8074 524.378
-62.2009 55.8252 525.195
-32.5272 52.0144 525.589
-77.6775 11.6032 524.975
-125.625 -19.0485 524.331
104.88 -34.3762 527.416
-75.8293 11.5486 524.995
-71.6401 13.309 525.047
56.5599 50.9774 526.764
104.601 -13.2507 527.403
53.4457 30.891 526.715
10.5232 -7.10347 526.139
17.5785 46.0164 526.231
-119.41 -22.9415 524.388
-64.3921 33.5471 525.125
-127.15 -14.8196 524.281
53.7751 31.0555 526.702
-18.7728 21.7495 525.729
108.75 -15.4607 527.435
-68.7819 54.1607 525.054
-79.7551 23.2547 524.899
-125.579 -23.093 524.27
110.405 -37.2766 527.429
13.1675 1.10581 526.126
106.307 -16.8394 527.371
-119.454 -25.0291 524.347
-121.444 -9.00549 524.318
103.205 66.5434 527.326
-121.394 -18.938 524.316
-26.473 5.78281 525.588
6.5551 -7.43242 526.029
53.1636 49.0867 526.653
-36.9202 45.0306 525.446
-125.498 -12.8971 524.258
-36.92 -64.0972 525.443
25.2953 31.1408 526.275
103.204 57.7075 527.319
26.7134 45.0771 526.293
-125.497 -17.0602 524.254
-29.7722 52.5593 525.534
-119.475 -14.8206 524.33
108.487 -30.8971 527.38
-119.474 -12.899 524.327
106.154 -33.2209 527.343
-125.63 -20.8569 524.238
-30.3214 54.2083 525.515
102.646 -20.9028 527.289
-75.4681 15.1743 524.903
109.982 -18.6349 527.385
24.6325 20.7788 526.241
102.645 -30.9719 527.284
67.9097 17.2705 526.816
-29.7707 9.63397 525.508
-26.4712 8.53409 525.551
53.4362 35.0216 526.621
111.503 -25.1244 527.398
104.636 -15.0151 527.302
53.1593 41.0867 526.612
106.31 -34.6459 527.318
62.5486 9.10478 526.73
-123.414 -23.0526 524.239
106.517 -36.1643 527.318
12.6841 -2.95717 526.059
104.486 -32.8493 527.286
109.008 -12.9732 527.346
24.0062 16.9931 526.204
106.278 -18.7306 527.305
8.39057 -8.90083 525.993
54.5992 15.1074 526.612
14.6185 10.9963 526.074
102.362 -22.9088 527.247
-121.534 -10.897 524.245
106.513 -24.8185 527.298
102.716 -28.8243 527.245
-63.6459 54.8291 525.017
-73.3402 11.3324 524.885
-27.0189 6.88243 525.501
-34.7158 15.6838 525.394
106.46 -30.8412 527.284
-125.503 -14.6913 524.177
-75.3504 43.1471 524.848
-121.323 -20.931 524.225
-67.3022 54.837 524.947
66.4657 10.9803 526.738
-26.4678 46.7766 525.485
-75.5667 13.139 524.826
108.608 -35.1683 527.285
-66.0182 56.8971 524.937
110.488 -34.672 527.296
106.501 -28.9818 527.241
102.571 -24.6727 527.186
104.562 -28.9797 527.206
102.674 -18.7904 527.177
-119.444 -20.8549 524.193
-27.0152 9.08232 525.429
-63.662 51.2038 524.935
66.9548 25.3741 526.684
102.744 -27.26 527.162
104.518 -18.7657 527.185
-79.118 19.2657 524.725
54.5281 49.0737 526.515
104.779 -17.0543 527.187
17.0203 13.4989 526.01
108.787 -32.767 527.235
16.2485 8.87187 525.993
105.054 55.7048 527.18
13.163 3.03278 525.946
110.552 -29.0434 527.248
-33.8852 -33.8264 525.312
-27.014 4.95559 525.404
7.92959 21.4801 525.869
-65.5305 54.6928 524.882
104.552 -27.0448 527.153
110.087 -32.8457 527.227
-63.5401 45.0756 524.902
-20.4144 -7.42457 525.473
104.55 -22.9045 527.146
6.55255 -5.50239 525.833
104.826 68.1769 527.147
-121.431 -14.7511 524.114
6.46072 18.8167 525.823
4.07436 3.0321 525.791
110.461 -31.0882 527.214
20.7655 49.7427 526.01
-27.0121 -33.83 525.368
104.547 -30.9077 527.13
-79.3269 16.9571 524.663
54.4529 47.2075 526.454
106.64 -22.9833 527.146
-36.9045 49.5033 525.223
53.9686 40.5216 526.435
-73.3303 13.3086 524.722
-33.4496 54.496 525.256
10.4069 -65.7967 525.833
108.598 -18.9023 527.147
108.589 -16.9324 527.145
16.1908 10.4673 525.907
11.5085 -65.798 525.844
106.42 -26.8771 527.112
8.34156 -7.01603 525.791
64.3857 9.0324 526.535
-35.5667 52.9969 525.195
-119.598 -16.917 524.067
24.4808 51.0031 525.994
110.345 -24.836 527.14
108.426 -27.098 527.114
103.149 65.1277 527.039
-121.327 -17.0075 524.03
26.384 49.0263 526.006
12.196 12.668 525.814
6.00075 13.4918 525.731
-31.3546 13.1787 525.224
-36.8993 50.5961 525.149
22.3681 51.0264 525.94
-79.5949 27.0846 524.569
108.52 -20.9699 527.086
21.0558 12.7621 525.911
6.00044 17.6198 525.703
-30.3041 -33.8202 525.215
67.9834 19.1362 526.532
6.55094 -0.821868 525.704
108.397 -28.972 527.063
110.176 -22.8229 527.086
53.4062 28.388 526.325
-119.376 -18.8771 524.004
110.055 -20.9692 527.073
58.6485 11.028 526.384
-64.1092 41.333 524.74
24.7279 23.1343 525.929
104.52 -24.8292 526.994
67.7587 24.5381 526.501
18.6668 10.4661 525.841
-20.4082 25.5829 525.312
-77.5042 37.3548 524.547
104.58 -20.9868 526.978
13.0478 5.12384 525.744
20.3185 47.634 525.838
-18.2081 -2.47155 525.32
-65.1629 35.1677 524.691
106.312 -20.759 526.986
54.0905 21.0836 526.284
-30.9872 11.4144 525.141
-20.407 -8.24698 525.281
-69.604 17.089 524.621
13.1575 6.61007 525.729
10.9548 13.7661 525.696
-23.4301 -8.24622 525.235
-79.2348 25.085 524.488
-121.576 -12.8889 523.919
26.4475 47.1575 525.897
66.647 28.9449 526.43
108.381 -22.8974 526.987
-20.4062 26.4054 525.261
109.764 -17.1035 527.002
-17.8928 17.0952 525.292
13.1569 11.8396 525.705
-36.8911 53.059 525.032
66.6455 13.2334 526.417
108.456 -24.7492 526.965
25.2748 32.492 525.848
17.5621 13.492 525.741
110.201 -26.9257 526.98
-35.6078 54.3413 525.026
106.548 68.8661 526.927
106.548 55.5121 526.925
-27.6871 11.4139 525.127
-33.5931 15.4534 525.042
-69.1293 53.0113 524.56
-71.5274 15.1082 524.525
54.1099 29.3182 526.205
-35.0342 17.2529 525.01
14.8076 12.7565 525.677
-79.2008 21.0774 524.414
-79.1316 34.8754 524.412
15.9087 15.1419 525.681
-63.8475 43.0589 524.608
-65.6982 27.0119 524.58
62.313 45.0113 526.293
-23.0728 -6.94873 525.146
66.8574 26.8454 526.348
60.4534 9.04147 526.262
-33.5901 -64.5921 524.994
53.9407 22.961 526.166
-33.5897 52.9764 524.992
-77.3181 14.9952 524.405
-63.3541 49.0418 524.589
24.7202 49.5548 525.768
-36.1524 27.1222 524.945
-63.7286 47.1528 524.57
54.3794 16.9734 526.145
-77.4789 13.1824 524.375
-24.9352 -4.53254 525.077
-25.4569 -3.02007 525.061
110.587 55.3673 526.879
56.4187 13.2268 526.152
-76.0138 41.4611 524.371
12.8781 8.80943 525.56
-21.4997 -8.36198 525.098
21.9637 49.8212 525.677
54.2789 42.9753 526.105
64.1424 41.0571 526.232
-31.6627 -34.3527 524.948
-73.3622 15.1046 524.388
68.0453 20.8274 526.28
60.5536 47.1135 526.172
54.1528 19.0098 526.085
-63.3824 53.061 524.509
12.0516 -5.22399 525.518
108.574 55.2605 526.805
-30.8378 46.7277 524.937
15.3545 -36.0434 525.554
-71.9885 26.0867 524.381
64.6905 39.3104 526.207
-29.5811 -64.2707 524.932
-67.401 19.249 524.422
58.6178 49.036 526.108
62.9132 43.3339 526.156
62.5344 10.9678 526.15
12.8763 -66.3031 525.483
5.17157 -6.32294 525.38
-28.0891 -64.035 524.934
113.811 55.5574 526.83
-19.5727 -3.02006 525.042
-29.4439 13.141 524.906
-73.5348 45.0257 524.315
-29.6445 11.6381 524.898
54.2407 45.3685 526.02
112.48 55.5127 526.799
-31.3835 54.6914 524.87
-18.1986 15.1236 525.045
24.7133 25.0474 525.619
-76.9123 39.805 524.257
-27.9045 48.8325 524.911
54.0349 37.0737 526.008
-25.6159 13.1966 524.938
54.0617 26.5802 526
-22.0444 35.1874 524.978
-65.9478 25.1104 524.381
-65.9467 22.929 524.371
66.6112 15.1553 526.146
-31.6558 -64.5717 524.828
-23.8007 38.9211 524.922
108.351 68.9761 526.691
25.2618 36.0528 525.578
8.74702 -8.52313 525.351
-64.19 39.0452 524.374
-35.3148 -64.197 524.758
-25.5388 9.12301 524.89
-29.5755 51.0371 524.835
-126.147 -9.0419 523.537
53.9186 34.7012 525.947
-65.3261 31.0269 524.348
-27.5346 13.1941 524.844
5.13124 -4.90724 525.276
54.0265 33.1029 525.926
112.461 68.7637 526.708
-125.048 -22.1989 523.526
102.967 62.957 526.579
61.0863 44.896 526.015
-31.805 52.9103 524.771
103.169 59.0597 526.576
9.29655 24.7579 525.315
14.3592 11.0621 525.377
-27.533 15.1166 524.81
55.8439 47.2289 525.926
-25.4933 -1.01679 524.836
-64.841 37.3383 524.308
56.3947 49.0188 525.926
-25.6107 7.14837 524.826
-35.4755 51.0833 524.69
14.432 -66.2871 525.356
-65.1808 29.2386 524.284
64.4763 11.0836 526.019
-124.491 -18.36 523.487
-21.6472 -6.94484 524.864
-25.6485 43.0658 524.808
66.7557 16.7261 526.045
55.8411 45.9874 525.899
24.1561 50.3521 525.471
110.444 68.6612 526.627
-123.942 -20.8267 523.485
-18.1934 -1.0954 524.897
-126.673 -17.5363 523.443
104.429 57.0705 526.537
66.0445 36.9096 526.022
-75.7483 16.8805 524.118
-73.602 17.0184 524.14
56.114 14.8721 525.876
-25.5533 11.0493 524.782
-119.565 -19.4576 523.521
-17.9729 1.04863 524.881
6.81969 19.5281 525.211
54.0455 24.9204 525.842
-26.1961 45.025 524.766
104.5 66.9427 526.516
16.7234 9.35579 525.334
10.1203 -7.97135 525.244
-124.48 -11.7809 523.441
-35.5678 49.0152 524.625
-31.5717 15.1626 524.675
12.3601 -0.97835 525.262
59.052 47.0875 525.885
58.2659 13.1948 525.87
60.4719 10.9428 525.898
-125.019 -21.0976 523.405
-67.0809 21.1364 524.176
-24.0953 40.8041 524.748
54.0129 39.1507 525.794
-70.8549 50.4972 524.119
23.0514 50.6179 525.375
-124.105 -24.5687 523.402
5.00394 -3.02055 525.131
-125.014 -18.3564 523.383
-22.9765 37.1733 524.745
-121.733 -20.0018 523.416
12.3195 1.1038 525.208
-67.6426 53.1255 524.137
6.54382 -6.71275 525.13
-23.4073 15.1142 524.723
114.499 56.5224 526.57
-118.451 -17.5363 523.443
5.44368 11.0012 525.1
-35.8957 21.0137 524.543
5.16865 3.02797 525.09
-19.9054 -4.59848 524.749
103.083 61.4031 526.391
-23.2966 -4.61182 524.696
-21.5934 29.0152 524.712
-31.4926 50.9852 524.577
-17.9137 13.1919 524.758
-35.4043 47.1225 524.523
-18.0053 18.5954 524.754
-118.989 -16.9868 523.4
65.4747 37.7248 525.87
-123.903 -27.1223 523.322
-25.6015 1.10263 524.638
-69.4719 19.2884 524.038
-75.4962 18.9786 523.953
-65.3077 50.9878 524.09
62.7134 13.0652 525.802
-28.0705 43.4007 524.586
-125.536 -27.1198 523.274
-124.989 -13.9691 523.28
17.5437 9.35318 525.189
-123.351 -30.4091 523.302
-33.5583 17.0303 524.501
-124.988 -16.1607 523.274
-25.4347 2.97026 524.599
-20.0397 22.8733 524.668
-121.434 -7.94197 523.309
14.4535 13.3068 525.126
-119.521 -24.3826 523.33
16.5801 11.2771 525.152
-17.8721 4.9094 524.688
10.2541 -6.59409 525.06
18.203 11.3324 525.164
-123.889 -17.6672 523.26
23.5952 17.3288 525.234
-69.3004 20.9092 523.984
18.9729 46.9132 525.166
-21.4801 15.1114 524.622
-25.8719 -35.243 524.562
9.05566 22.9771 525.027
64.5445 12.8196 525.768
20.493 48.6241 525.177
11.3811 32.8277 525.051
-25.5422 4.89253 524.553
10.4828 13.1989 525.033
12.2767 4.83445 525.055
-36.0239 24.9897 524.408
8.44805 19.1905 525.003
-19.6487 21.0169 524.624
25.7949 46.4786 525.227
20.2918 13.4767 525.143
-77.2889 16.9537 523.833
12.0404 -3.56974 525.026
16.3718 12.8566 525.082
21.9416 15.1262 525.147
58.8411 45.9648 525.641
23.8282 21.0194 525.171
-27.6254 -62.9915 524.481
6.54137 -4.83372 524.939
-77.76 19.4758 523.805
-21.4775 -4.9399 524.558
-78.4895 22.2179 523.792
-123.324 -29.8547 523.189
-73.4709 19.2951 523.857
12.3147 3.0275 525.001
61.0441 15.6915 525.652
66.0062 35.5118 525.717
-73.6389 20.9662 523.845
-69.4329 51.2144 523.9
8.46549 13.1965 524.94
-19.5365 19.1746 524.562
-17.9077 3.02514 524.583
-27.377 47.2343 524.456
-17.9078 7.14495 524.582
67.1074 19.547 525.718
8.73989 20.9227 524.936
-64.9334 32.6487 523.947
-25.5927 15.1067 524.462
59.1111 14.589 525.595
63.2456 41.5621 525.65
9.28962 -64.8585 524.924
60.4887 12.7548 525.609
5.16627 9.07266 524.867
12.5389 10.9236 524.966
-35.3942 43.1044 524.323
20.564 15.1242 525.071
-124.405 -23.2775 523.125
-71.8438 17.0085 523.828
-26.9637 -34.5928 524.427
65.4488 15.6918 525.662
-65.5228 53.128 523.905
24.2005 48.6674 525.105
-36.0161 32.9453 524.297
26.0649 40.9709 525.128
-74.6482 24.4112 523.778
-35.7917 39.0096 524.298
61.5886 15.1396 525.601
-67.5298 51.0764 523.871
-35.6959 44.9779 524.296
6.54042 15.1182 524.86
16.9875 44.2594 524.998
25.7893 38.7703 525.113
16.5944 43.0021 524.99
-65.4291 49.4689 523.888
12.478 7.25979 524.924
5.16606 -1.09496 524.822
-77.7463 21.6661 523.712
12.5328 13.3055 524.919
10.473 -4.87962 524.891
-29.2933 14.9662 524.356
23.7711 18.6065 525.066
-68.6206 26.6071 523.822
-74.0953 26.6036 523.748
6.64981 16.9312 524.823
8.46408 15.1178 524.847
-77.6522 25.5041 523.694
-69.1671 26.0581 523.807
-73.5469 25.2325 523.747
61.5819 11.836 525.544
-33.5435 51.0854 524.268
-75.7334 21.6655 523.697
103.957 65.1221 526.104
110.452 56.9105 526.19
6.72292 13.1012 524.8
-23.3932 -3.01634 524.397
104.129 58.7376 526.105
-71.559 19.1311 523.75
25.8964 45.2539 525.054
-19.5506 15.106 524.439
-22.7521 35.1483 524.396
106.496 56.9154 526.123
-17.9948 10.8045 524.455
13.136 37.1035 524.867
-17.9032 9.06555 524.451
18.4144 13.178 524.93
-19.5678 13.2019 524.417
58.0864 47.0488 525.453
18.3592 -36.5492 524.913
-64.9604 46.5348 523.795
-124.92 -7.11583 522.99
12.5072 9.15042 524.825
5.07332 1.07237 524.722
-35.1847 19.2151 524.181
-19.5485 -1.0945 524.388
-35.6487 41.2338 524.169
64.8799 9.63405 525.512
53.3075 44.2893 525.353
56.6128 15.4087 525.395
-67.694 25.323 523.726
-19.5474 1.10216 524.364
-29.3488 49.1347 524.226
-24.7604 39.2582 524.286
-64.7719 41.9603 523.75
-73.8039 22.7591 523.626
8.53017 -6.79591 524.72
-72.4338 20.5661 523.63
-79.0003 26.0449 523.542
63.7722 40.4461 525.454
8.46165 -4.94124 524.712
15.1952 40.8085 524.802
62.3017 12.9338 525.427
-126.54 -18.3392 522.895
-70.2429 49.0807 523.649
-69.5125 22.5777 523.654
24.0196 23.0889 524.888
61.0127 11.8323 525.382
103.763 60.312 525.955
20.5795 46.9441 524.84
22.4793 49.0115 524.863
-66.9546 49.082 523.662
56.3288 48.9615 525.312
-76.8052 15.628 523.527
-21.4654 13.1797 524.265
59.2468 13.2614 525.334
4.88896 7.09032 524.602
108.451 56.9318 525.984
-21.5142 25.1813 524.242
103.811 63.172 525.92
-21.4091 27.0675 524.238
-64.7603 38.9368 523.656
-23.6133 -0.956722 524.206
-21.464 17.0217 524.232
25.777 43.4235 524.863
-21.8294 32.7573 524.22
-27.3609 19.0767 524.145
60.3866 15.0627 525.319
18.4283 15.065 524.752
106.328 67.4687 525.93
-25.0293 -36.4974 524.17
10.6027 26.979 524.647
-64.7576 44.6926 523.633
10.6577 15.1115 524.626
5.16322 4.94765 524.55
110.281 67.6558 525.956
14.5045 17.0357 524.672
-64.7545 42.7714 523.609
8.45964 17.033 524.586
-29.563 16.8686 524.074
24.421 47.0741 524.791
-29.4896 18.887 524.066
22.475 17.0383 524.754
6.60494 -1.16328 524.529
-29.9619 -34.2931 524.038
-78.9759 34.8059 523.38
14.5037 15.1117 524.632
-28.865 45.0026 524.05
-19.5406 17.0193 524.174
14.2291 -35.9795 524.623
-31.4538 48.8706 524.009
-68.8534 52.3566 523.507
-33.5251 49.0331 523.978
-21.4603 -3.01498 524.138
-29.4875 47.4699 524.028
-68.0304 19.4647 523.502
24.0006 25.127 524.734
-27.3832 45.167 524.046
-23.3796 10.9801 524.097
64.6937 13.7157 525.276
55.093 43.0147 525.143
54.9357 46.471 525.141
108.516 67.5514 525.858
55.0044 44.8214 525.141
-23.4967 13.2536 524.088
62.2334 42.9043 525.236
-33.6014 18.8541 523.952
-76.965 38.6417 523.371
-25.1417 41.1229 524.064
-74.7308 17.4054 523.397
-66.3863 23.5762 523.505
55.0916 19.1321 525.13
114.864 58.7484 525.926
-25.6176 19.1645 524.039
-31.7862 17.1954 523.956
20.5476 17.035 524.656
55.3001 17.2336 525.12
-31.603 18.9327 523.952
10.6554 -3.01729 524.516
-33.521 -34.2853 523.919
112.711 67.4619 525.876
-77.1678 19.0668 523.331
-69.3908 18.6396 523.425
-78.9627 23.2926 523.293
24.1698 27.0002 524.673
-32.9717 23.5943 523.906
6.535 -3.01654 524.431
-22.6909 29.0877 524.039
-19.6156 10.9013 524.079
54.9976 25.0902 525.078
-21.4565 19.2106 524.049
24.6689 37.0888 524.664
10.6547 10.988 524.47
58.3965 15.2352 525.109
65.9425 35.1111 525.21
-25.4943 16.8385 523.982
6.46608 3.09281 524.409
-74.8569 42.7478 523.32
-64.1878 48.5147 523.459
66.2721 17.5481 525.206
-75.4027 19.8683 523.307
-23.5228 0.995624 523.997
11.2035 31.0336 524.461
16.4228 15.3835 524.529
-21.4055 11.0036 524.021
-23.6492 2.94312 523.991
-35.5269 22.8595 523.832
-78.9561 29.0439 523.249
-30.2283 23.0455 523.9
-21.4054 23.1255 524.017
62.434 15.1263 525.137
56.5763 46.9446 525.054
60.4299 13.3533 525.098
-33.6984 47.5437 523.832
55.0605 20.9642 525.02
-25.5669 24.4186 523.936
-22.8249 24.6944 523.968
-30.9936 23.2079 523.854
-21.0882 7.77708 523.986
-33.5144 -63.8982 523.812
8.45624 -3.01634 524.373
-25.7618 21.0474 523.915
-65.8216 52.3433 523.375
-69.4686 50.1462 523.324
54.9696 39.0108 524.989
10.6528 17.0265 524.388
10.8772 29.0323 524.389
-67.461 50.6955 523.337
12.7581 35.0575 524.411
-78.9459 31.2316 523.181
22.5152 47.1668 524.539
-34.0606 41.9626 523.779
54.9673 23.1174 524.967
112.529 59.1862 525.738
-26.2041 -61.1634 523.876
-27.1177 20.7581 523.864
12.5749 -35.9637 524.393
-28.5793 43.6133 523.842
-21.217 1.37548 523.939
12.575 17.0265 524.389
-21.5889 30.865 523.931
12.5749 15.1045 524.384
8.51059 11.0035 524.324
16.6392 -36.1856 524.429
-19.2577 3.02138 523.947
67.6896 22.9334 525.11
108.933 58.076 525.656
-70.9559 48.9334 523.245
24.1126 29.1141 524.518
-29.1255 -63.3486 523.803
-78.9391 33.1464 523.137
10.652 9.06349 524.336
112.452 56.9109 525.7
18.3633 45.0994 524.435
110.771 58.2612 525.671
-23.3062 19.1832 523.875
-23.1869 16.6441 523.876
-23.3946 4.91615 523.872
-27.3711 16.9531 523.816
-23.7531 9.05531 523.864
6.53303 1.10181 524.269
6.42329 11.0937 524.264
14.1604 39.0204 524.366
-23.7999 7.33099 523.856
67.5754 21.7226 525.077
24.7397 34.8804 524.502
-35.7001 -63.3351 523.691
12.4636 33.0578 524.337
-67.177 52.3318 523.259
-31.5898 -63.8888 523.735
-21.3394 -0.98365 523.867
-67.8143 21.0989 523.244
-77.2929 20.9371 523.117
-64.1676 44.9375 523.293
56.5604 17.0433 524.908
-77.3706 17.0242 523.113
61.515 44.2573 524.973
24.4636 45.1568 524.474
64.4681 15.0724 525.009
10.6506 21.1407 524.284
63.9919 38.8536 524.997
-66.0804 51.0526 523.253
-63.892 52.6079 523.28
-73.1899 21.6431 523.155
-22.9364 23.0812 523.826
-119.611 -23.798 522.525
-33.3687 43.0514 523.678
54.9749 37.0341 524.861
-19.3391 7.07205 523.865
11.1604 0.827393 524.269
-66.3515 24.9336 523.231
-69.2848 49.0378 523.19
6.12046 7.0029 524.197
65.916 32.4397 524.998
-19.5283 9.12367 523.845
6.39468 8.64926 524.188
-21.447 9.14579 523.814
-71.6125 19.2456 523.14
-19.6194 5.07802 523.835
-78.9246 26.8414 523.04
12.5718 -65.326 524.263
54.765 41.0848 524.825
66.3529 19.1345 524.975
-30.7636 43.5994 523.674
-73.5468 19.0844 523.096
-25.9682 23.7236 523.732
16.553 -65.4667 524.292
-67.5071 49.0352 523.163
-33.2279 20.8398 523.621
24.4913 33.1159 524.389
-22.6787 33.0485 523.757
55.1057 28.9928 524.797
-66.1613 31.3221 523.171
10.6488 23.0586 524.199
10.6486 25.0712 524.198
8.45268 -1.09388 524.157
18.6118 17.0235 524.293
14.4926 19.2175 524.237
22.4573 19.2212 524.342
66.5111 21.0563 524.922
-30.7595 21.1133 523.604
65.9033 31.0591 524.897
-21.4434 2.47178 523.727
54.8255 31.0503 524.746
54.9442 32.9485 524.748
105.033 58.0497 525.418
-75.5473 25.2172 522.993
-21.6257 4.48252 523.713
16.3525 41.2055 524.221
-75.3958 40.8037 522.984
-21.4426 21.1958 523.706
-69.4599 21.2478 523.063
14.3262 -65.479 524.17
58.4672 17.0382 524.756
10.5417 19.1494 524.109
58.4485 45.008 524.75
6.37336 4.90352 524.051
10.6471 -1.09376 524.102
-22.756 21.1149 523.644
54.8027 35.1882 524.682
11.1567 5.06077 524.094
10.2349 -64.8914 524.08
20.3931 45.2001 524.217
56.4828 43.0254 524.699
-67.64 22.9887 523.027
-75.3229 21.0363 522.924
-71.3162 16.9808 522.975
8.45076 9.0583 524.043
113.98 57.5027 525.447
24.4494 43.0479 524.245
8.35914 1.00965 524.025
-77.4674 25.1271 522.873
-73.1583 44.3588 522.93
110.344 57.4957 525.383
54.8368 27.0609 524.637
10.7009 7.19264 524.038
64.4374 37.0457 524.757
56.4478 19.2113 524.649
12.567 23.0524 524.061
62.4277 16.9588 524.725
-65.9793 28.8931 522.996
-65.6833 48.6548 523
64.5285 16.9829 524.742
104.564 59.3541 525.277
20.4179 23.0011 524.141
16.6837 17.8401 524.089
22.6694 20.9166 524.168
-23.081 30.4313 523.551
-66.0446 35.0524 522.971
16.5917 19.1658 524.077
18.5206 19.1912 524.099
13.6639 37.3187 524.034
60.4291 45.1301 524.659
-75.2801 23.0532 522.837
-33.5965 43.0273 523.384
16.0421 24.7895 524.045
-34.7188 45.0807 523.364
20.5261 19.2125 524.104
-33.304 46.772 523.381
-67.3462 25.1622 522.919
-65.4721 45.0547 522.942
24.6443 38.9978 524.142
60.5749 43.0792 524.623
7.95507 5.21588 523.915
56.5733 44.9721 524.566
60.5314 17.1122 524.617
8.52357 2.97135 523.919
-21.9823 22.2055 523.499
-33.484 49.3256 523.339
-69.3358 25.0419 522.855
-28.7377 17.6338 523.397
-32.3884 50.6964 523.346
24.5051 41.2114 524.106
-31.5668 20.0072 523.354
-18.1462 5.21199 523.533
12.6739 19.0968 523.946
-25.4054 19.325 523.433
58.445 19.2292 524.554
12.0152 26.8871 523.929
-77.4549 23.0487 522.731
14.7592 20.9906 523.962
-34.5775 40.8284 523.301
104.982 64.896 525.168
106.453 57.8407 525.186
-27.7323 19.4603 523.388
-66.3056 27.654 522.869
14.6902 22.7045 523.95
-71.4227 21.1304 522.796
-29.6488 15.3489 523.355
22.9936 27.4426 524.058
-73.627 25.2396 522.758
-69.5273 23.1616 522.806
-23.0755 3.15555 523.425
8.53917 7.59213 523.845
-27.5353 44.826 523.362
18.1887 43.0754 523.972
-71.2204 47.0825 522.772
-25.7042 17.3775 523.38
-34.8481 29.0439 523.248
-23.6224 19.2782 523.397
-65.6271 47.2355 522.835
-65.534 41.0108 522.831
16.2944 22.9915 523.926
112.483 57.5442 525.2
12.1963 31.3633 523.856
58.4361 43.1171 524.475
15.8549 32.0976 523.904
10.6966 3.02071 523.833
114.012 59.2372 525.216
14.2083 33.4674 523.878
-22.5256 12.6094 523.385
-20.3343 3.01842 523.412
104.967 63.0233 525.09
12.5618 21.1232 523.847
106.62 66.6758 525.106
-21.9769 -1.64038 523.37
112.462 66.6012 525.169
-65.5188 39.0088 522.782
-21.7576 0.716336 523.367
-25.2628 21.2114 523.32
64.483 19.228 524.522
-23.291 4.99101 523.343
62.4474 41.086 524.491
-33.5849 22.9053 523.203
18.7074 21.1249 523.894
-33.3654 19.6724 523.196
-19.5111 8.90987 523.381
-27.5306 17.0294 523.272
-18.9631 11.5133 523.382
108.54 57.6464 525.087
24.0865 30.9348 523.953
18.1578 41.7505 523.87
-27.634 21.2818 523.254
-21.4274 20.8285 523.335
-75.4662 29.2819 522.607
106.331 59.1075 525.04
-31.0093 16.44 523.197
-21.9745 10.6897 523.314
9.26851 -63.8883 523.731
-20.3311 7.40208 523.329
-34.9578 27.0419 523.132
-34.749 23.194 523.134
-33.5498 21.173 523.145
-34.84 21.0941 523.128
-34.6758 38.8429 523.129
22.4877 45.0143 523.895
-34.9312 25.2939 523.125
60.6058 19.2416 524.401
21.1569 32.8272 523.872
-23.452 17.2093 523.267
16.2173 21.4868 523.796
-71.3977 45.1036 522.616
14.315 35.3799 523.764
22.4363 25.0549 523.859
-19.234 4.52447 523.296
-34.8371 33.1429 523.083
104.664 61.1392 524.951
-31.6271 21.0935 523.116
56.4941 21.1411 524.295
-67.4302 27.0938 522.628
66.2092 24.8073 524.418
21.886 41.6915 523.817
-22.6553 -1.50287 523.214
-23.066 6.98947 523.208
18.654 23.0089 523.766
-21.3618 5.08701 523.223
-29.5436 44.922 523.111
-21.6959 9.04377 523.209
-23.7691 21.0961 523.178
-31.8237 49.3003 523.071
22.7471 22.9234 523.796
12.0088 29.3405 523.651
-19.2316 12.8797 523.232
20.8783 21.12 523.768
62.5373 19.2211 524.326
-65.6156 33.1129 522.609
-31.6966 47.1297 523.061
-23.6724 22.9824 523.161
-34.8322 35.055 523.009
22.57 43.0594 523.776
22.9814 32.3643 523.78
110.559 59.2197 524.953
112.458 59.0392 524.976
22.844 28.6615 523.773
16.2868 39.4322 523.68
-33.4631 44.9131 523.009
-65.6751 43.1887 522.574
21.1514 41.7764 523.736
64.7321 35.2174 524.312
-25.389 22.782 523.099
56.3614 29.1271 524.194
-34.8296 31.2191 522.969
-69.4324 30.8625 522.503
-77.5762 29.0743 522.388
59.2309 37.6064 524.22
64.4543 21.1408 524.287
7.62005 10.6938 523.513
15.0236 26.5966 523.611
5.4269 6.85596 523.48
-25.5246 25.3167 523.066
-29.1913 19.8847 523.016
-23.7178 35.06 523.089
-33.4594 25.194 522.955
65.9639 26.7678 524.284
-33.4592 27.1107 522.949
62.6365 38.9802 524.236
56.4787 41.0779 524.153
19.1374 24.4054 523.652
62.5259 21.1384 524.231
66.3741 23.0618 524.274
60.4517 41.32 524.186
-77.5259 27.029 522.338
-75.5407 39.1146 522.364
-31.8164 22.929 522.948
16.3936 36.4645 523.588
-27.2815 42.9175 523.001
-73.2338 23.1307 522.384
-27.9849 46.828 522.986
15.2963 26.0459 523.562
-30.1736 49.0154 522.952
-65.6622 37.0707 522.473
-69.3668 29.3813 522.423
20.7815 24.9525 523.628
20.7814 42.8642 523.625
-29.289 23.0248 522.95
110.565 66.4625 524.817
-33.4552 50.6521 522.888
58.396 21.134 524.115
-77.6267 31.1333 522.29
-71.4566 22.923 522.367
19.1346 36.4637 523.576
7.07047 10.4177 523.411
61.9663 26.0747 524.141
-22.6917 1.55556 523.004
-29.1859 46.4933 522.917
10.3597 3.01849 523.446
7.07032 2.47024 523.401
108.473 59.0757 524.758
106.432 65.0613 524.725
58.3914 22.8336 524.075
61.0015 34.4425 524.105
-69.3403 26.9582 522.359
56.4671 34.6669 524.042
-29.1659 -34.583 522.89
56.4665 38.9651 524.038
7.61815 3.56629 523.383
-67.5467 45.0476 522.371
-67.4624 31.12 522.37
-76.8902 36.9182 522.244
65.8098 29.0946 524.152
60.4769 21.0226 524.076
-23.328 27.1108 522.949
-74.0668 28.8067 522.258
-36.9133 -62.3089 522.749
-26.3371 42.7129 522.89
108.42 66.4469 524.694
14.2646 23.3672 523.427
8.38486 6.85414 523.344
-23.1444 8.94761 522.921
-21.5328 3.07643 522.942
-67.5259 47.0031 522.326
56.4107 23.0738 523.982
-71.2431 25.2524 522.271
-77.7019 33.0856 522.184
-23.5088 25.3744 522.909
6.63062 9.37442 523.309
13.099 32.6144 523.392
60.3062 33.7512 524.023
11.4543 24.9401 523.367
56.3894 24.8996 523.958
6.33815 -1.0007 523.286
18.5819 44.1288 523.449
-29.3437 21.0812 522.805
56.1817 37.0379 523.939
-33.4456 33.1209 522.737
-33.4455 38.8682 522.735
114.182 61.0684 524.709
58.2413 34.57 523.958
-31.7586 43.2943 522.751
6.73972 4.99017 523.265
-22.1386 31.3047 522.878
106.432 63.1988 524.596
16.4787 22.8402 523.389
-27.4277 37.2308 522.8
62.4372 25.2751 523.999
114.176 63.1634 524.683
-21.627 6.90288 522.861
-26.0586 -60.216 522.799
18.5799 43.028 523.395
-69.5037 47.0323 522.214
64.5369 23.0498 524.003
-29.4151 42.9247 522.742
-69.5023 35.0012 522.205
58.4793 25.0929 523.918
10.2345 1.31277 523.272
8.7119 1.37356 523.245
17.2085 40.559 523.359
20.7725 44.4904 523.405
60.5071 22.9837 523.936
10.2344 4.84392 523.262
-27.5093 22.9742 522.756
-23.6637 33.1937 522.805
-67.5897 35.0017 522.215
-73.9443 32.7696 522.129
6.72539 7.19488 523.209
9.80791 6.30501 523.249
-69.4998 45.1159 522.184
-27.5807 25.2618 522.742
58.3915 38.9753 523.887
8.66154 4.8103 523.209
15.0693 38.8552 523.294
-73.9305 31.3723 522.102
62.8558 37.2199 523.929
23.9242 40.9737 523.406
20.1313 21.1032 523.354
64.3908 25.0519 523.943
16.7501 19.4573 523.304
22.3061 43.0267 523.378
23.7867 44.1242 523.395
-25.672 39.0323 522.731
106.412 60.9054 524.5
60.7294 27.0494 523.887
-75.4968 26.518 522.062
-75.6334 31.0279 522.059
-31.524 27.0948 522.644
-31.4608 45.0714 522.645
-23.9212 36.8437 522.744
-31.5781 -34.8581 522.637
-67.4341 28.9202 522.151
-33.4368 29.0076 522.601
11.4507 29.8631 523.202
112.44 65.1502 524.554
60.5614 38.8148 523.859
-75.493 34.9898 522.035
-27.5772 28.9338 522.674
56.2577 27.2459 523.795
-23.3962 31.2433 522.724
-25.9847 40.9858 522.689
58.3078 29.2399 523.817
56.3484 32.7307 523.789
108.416 63.1644 524.487
-69.5386 43.22 522.102
60.5293 29.1075 523.843
13.9166 21.3716 523.217
16.8047 25.3142 523.256
23.5103 43.5719 523.344
60.8341 25.1684 523.843
112.546 60.9732 524.536
-73.3573 42.9666 522.042
11.0847 19.4522 523.172
58.6357 27.4293 523.809
23.51 33.4329 523.336
14.6883 37.036 523.213
23.9797 35.1943 523.336
58.4152 33.627 523.797
58.1951 41.2507 523.79
-35.4387 -62.9219 522.534
60.6943 37.0294 523.822
18.1638 22.8797 523.249
57.535 30.9925 523.772
-27.5281 39.1339 522.63
112.454 63.1449 524.5
20.3563 23.4283 523.266
-23.5437 29.0122 522.677
16.6557 27.1244 523.213
-70.7101 34.7164 522.037
23.5082 36.9924 523.298
-25.5037 27.0947 522.64
-29.4952 -62.7633 522.582
20.4924 43.1805 523.252
64.4384 33.4259 523.839
8.89206 -62.715 523.093
-29.3311 39.0393 522.581
22.411 25.392 523.268
-77.2991 35.0735 521.925
12.7011 27.198 523.127
-33.4309 40.9305 522.507
18.2442 20.9872 523.197
62.6564 23.2234 523.792
-25.2286 -36.9361 522.611
-70.8027 40.883 522
18.5728 40.8813 523.197
108.399 60.9575 524.4
-31.5168 29.0036 522.524
-37.2559 -60.9954 522.438
-71.2389 29.0369 521.984
17.2022 15.6173 523.168
-71.3856 30.8867 521.981
-73.5131 34.9295 521.951
23.8715 31.8752 523.254
110.522 65.0273 524.411
108.394 65.0734 524.38
14.3521 27.229 523.119
23.7796 38.769 523.24
20.3427 40.9465 523.194
-29.6016 27.0884 522.518
-31.5149 25.1719 522.492
56.4268 31.2607 523.669
16.722 21.0262 523.136
-75.4733 37.1665 521.899
18.5714 27.1214 523.158
11.9955 19.7223 523.069
18.5218 25.2787 523.156
62.193 33.7328 523.739
14.4064 25.1465 523.098
-73.8363 41.2669 521.916
-33.4277 35.0177 522.456
14.4612 -36.4225 523.095
110.511 63.2291 524.374
-33.4265 36.9318 522.438
-27.6857 -62.0979 522.51
-71.3552 43.2847 521.912
59.7162 31.5344 523.661
64.502 29.2658 523.719
-73.7511 27.0545 521.866
-67.5164 33.149 521.948
-29.4413 25.0915 522.454
64.1087 26.967 523.706
20.4691 25.2205 523.12
-69.3728 39.0808 521.916
-69.0992 33.2509 521.913
-33.4229 -34.7323 522.39
-73.9164 38.8929 521.839
-71.2962 27.0051 521.871
-27.5189 -34.6268 522.453
-31.5094 -62.9053 522.397
64.1046 30.7127 523.674
22.0391 23.6496 523.108
110.516 60.9257 524.287
12.7754 30.9452 522.973
-67.5276 43.1994 521.897
-75.4577 33.1391 521.791
-74.026 37.3652 521.809
-67.0568 39.0796 521.899
12.5403 21.087 522.948
-70.5461 37.162 521.835
55.3143 30.9777 523.519
-67.272 40.965 521.87
12.5399 25.193 522.93
21.8541 44.6432 523.054
-33.5737 -62.8548 522.302
-27.6787 27.0814 522.382
14.457 31.2175 522.946
61.9001 28.2399 523.581
-27.0411 -61.3539 522.386
-69.5003 41.0106 521.816
16.4657 -64.5251 522.964
18.5654 39.1609 522.984
22.5108 40.9723 523.037
-33.4164 31.1777 522.279
-71.6289 39.0692 521.762
20.4823 27.1128 522.993
-31.5774 33.1421 522.287
22.2432 27.0351 523
-71.1717 33.1494 521.748
-67.2624 37.1202 521.797
14.5296 34.922 522.878
11.0319 -64.4624 522.826
12.7202 28.9304 522.846
-27.5009 41.049 522.303
18.5129 37.3133 522.911
14.5911 32.9916 522.855
-31.4991 39.1044 522.232
22.4887 38.9755 522.949
22.1919 29.2321 522.944
65.7298 27.14 523.515
16.6441 29.0215 522.852
63.5326 23.0269 523.479
-25.4858 28.9896 522.272
58.2227 38.825 523.382
20.4776 29.0227 522.873
18.5606 33.1277 522.847
-25.5392 37.1369 522.25
20.3132 33.1288 522.863
56.721 25.9257 523.349
58.4773 23.2962 523.371
18.56 29.0205 522.834
-25.5021 35.0584 522.244
61.148 40.4708 523.401
16.6424 37.3481 522.801
-69.7 36.8749 521.637
22.3255 33.1976 522.87
14.452 29.0165 522.76
16.9162 38.9901 522.793
-31.4934 34.9966 522.138
64.4391 26.0389 523.422
18.5588 -37.1319 522.8
57.1194 28.865 523.314
61.8759 38.9161 523.376
60.7779 23.2959 523.361
-75.9653 22.1217 521.524
-76.5099 28.4016 521.515
56.5429 35.5047 523.294
57.1545 36.883 523.302
64.399 32.6143 523.392
56.7768 33.1558 523.286
62.2387 22.8387 523.354
-73.7819 22.1221 521.532
22.4762 35.0635 522.821
58.0305 25.7586 523.295
-29.4526 29.1285 522.122
-27.0288 30.9877 522.149
60.3027 25.1723 523.314
63.7365 34.9137 523.353
-72.6886 31.9519 521.525
58.4274 35.2476 523.28
22.452 30.9959 522.797
64.3397 28.7759 523.356
18.5567 31.2054 522.742
62.9665 24.6644 523.33
64.0632 17.8144 523.336
-29.303 41.1437 522.084
-77.5903 30.8543 521.435
62.2317 36.9009 523.295
56.9261 41.0046 523.218
-69.9567 27.5824 521.515
58.5715 27.0472 523.234
-25.5826 31.3146 522.106
-71.046 23.7587 521.493
-27.5531 33.0786 522.068
-31.4678 37.2295 522.01
57.1973 23.2879 523.194
58.3862 36.9861 523.209
-25.6887 32.9575 522.077
58.7876 40.9307 523.207
57.1048 27.0314 523.182
62.6144 33.0166 523.251
20.4699 37.2223 522.679
58.6351 29.0407 523.19
62.492 31.2561 523.24
-68.0422 31.9498 521.491
-29.5724 34.9878 522.006
-77.5794 33.0337 521.362
60.2807 27.0557 523.208
-29.4504 33.1958 522.001
-68.8586 40.6856 521.471
62.516 27.1251 523.229
-29.6926 31.3124 521.988
-68.0397 42.5969 521.472
-68.8568 42.8687 521.457
-31.4824 31.1583 521.953
-75.396 37.1286 521.365
-70.4909 35.222 521.427
20.469 35.0308 522.644
22.4852 37.0475 522.67
60.4142 36.9838 523.177
16.6908 31.1417 522.589
-31.4071 40.772 521.942
-71.398 42.6825 521.405
58.5618 32.8181 523.145
-27.6578 34.9471 521.984
60.7555 18.9043 523.167
14.563 -64.5258 522.547
20.4674 39.133 522.615
-68.0339 47.2344 521.427
62.537 29.1768 523.175
16.3603 -36.5656 522.533
64.5353 31.34 523.164
-73.0683 27.1621 521.311
12.5288 -64.2797 522.455
-68.0818 41.0057 521.376
-67.7532 27.5747 521.369
62.3923 35.0617 523.109
12.5283 -36.3769 522.44
-69.9327 25.3893 521.336
-69.9325 39.1464 521.334
-29.4804 37.1857 521.87
-73.0184 40.4889 521.281
60.4694 39.0294 523.061
16.4499 34.8369 522.47
-72.1077 27.5696 521.274
56.6285 31.0839 522.998
60.4213 33.0034 523.041
-77.4449 34.6605 521.194
-75.6219 31.238 521.21
58.5458 31.2209 523.004
60.5825 31.1441 523.026
61.0136 21.6379 523.03
-69.6515 31.9365 521.274
-69.6895 32.872 521.268
-69.2416 28.2519 521.271
8.69635 -60.98 522.306
-72.8253 29.2029 521.199
-67.7392 28.6606 521.261
16.6294 33.0988 522.386
-71.9155 24.4729 521.199
64.504 27.1827 523.022
60.4958 28.9887 522.954
-71.6859 41.1408 521.184
-71.4945 39.0801 521.182
-71.5985 35.0067 521.179
20.3811 31.1463 522.406
18.5439 35.0128 522.38
-67.5147 32.9153 521.214
10.6094 -36.7743 522.254
60.3146 35.2763 522.905
-71.8153 33.0194 521.134
-76.4433 34.6516 521.06
-67.8031 39.0238 521.154
-71.5372 31.9255 521.093
-75.3488 28.1028 521.037
10.0608 -63.6972 522.164
-75.9997 32.9025 521.011
-71.8929 28.6479 521.036
-74.2468 35.7361 520.962
-30.6376 32.4983 521.529
-67.6482 37.1351 521.029
-36.0931 -61.9715 521.446
110.659 62.212 523.405
-27.9069 32.4983 521.529
111.203 61.1133 523.383
-30.9067 42.323 521.461
-72.9419 36.8908 520.896
-75.4772 27.3133 520.847
-31.7239 36.3143 521.431
-28.995 28.1252 521.454
-71.5077 37.094 520.881
-28.4491 -61.9726 521.456
-73.0308 33.2197 520.849
-29.5392 34.9486 521.422
-73.0478 39.1819 520.838
-69.1873 37.2289 520.861
-29.5361 32.4881 521.365
-24.9873 30.4873 521.383
-27.6227 35.2148 521.32
-31.3492 -35.203 521.259
-28.1673 30.573 521.294
-29.1649 30.6606 521.236
-28.4376 36.5742 521.245
-32.8 41.2085 521.178
-30.0712 40.6624 521.178
13.0579 -63.6464 521.748
-32.7955 -61.9312 521.107
-32.2501 -61.9316 521.111
-28.9773 -61.9344 521.134
-25.1597 34.1142 521.185
