ply
format ascii 1.0
comment Created by Open3D
element vertex 1590
property double x
property double y
property double z
end_header
0.114445 -0.0253845 0.27335
0.0328774 -0.0571222 0.290034
0.120357 -0.00457911 0.271952
0.0500691 -0.0543867 0.288099
0.0346709 -0.0572098 0.289812
0.0466241 -0.055347 0.288495
0.0744901 -0.0370121 0.285579
0.0267111 -0.0532643 0.291423
0.0322815 -0.055401 0.290476
0.0306441 -0.0553538 0.290669
0.0161183 -0.0395292 0.294419
0.0129525 0.000661071 0.297216
0.092543 -0.0249701 0.281646
0.0113149 -0.0291979 0.295882
0.00979929 -0.0233496 0.296458
0.0163123 0.00697513 0.297031
0.0585897 -0.0492626 0.287549
0.0405626 -0.057278 0.289168
0.0148991 0.00459886 0.297161
0.0145224 -0.0373115 0.294874
0.110039 -0.0143718 0.276114
0.115119 -0.0101882 0.274224
0.0126448 -0.0332436 0.295453
0.0178412 0.00934812 0.296913
0.0202459 0.0128013 0.29664
0.0887481 -0.0275372 0.282736
0.0226311 -0.049292 0.292633
0.017352 -0.0430419 0.293982
0.0112091 -0.00340823 0.297396
0.0507393 -0.0539565 0.288274
0.0347422 -0.0561926 0.290214
0.0287037 -0.0552613 0.291063
0.0687498 -0.0415031 0.286616
0.0212369 0.0140459 0.296566
0.0425966 -0.0572625 0.289021
0.116652 -0.00913126 0.273758
0.0666164 -0.0433054 0.286921
0.0564803 -0.0509386 0.287841
0.108645 -0.0152955 0.276768
0.0247923 -0.0532685 0.29188
0.0865501 -0.0290835 0.283391
0.0911941 -0.0261462 0.282257
0.0241435 -0.0513726 0.292314
0.0541777 -0.0524884 0.288062
0.0709851 -0.0399261 0.286423
0.00899359 -0.0153215 0.297251
0.0844476 -0.0305469 0.283934
0.0324777 -0.0573472 0.29042
0.009971 -0.0253457 0.296556
0.020631 -0.0472927 0.2933
0.00896151 -0.0172791 0.297175
0.0486396 -0.0553146 0.288572
0.118617 -0.00731622 0.273092
0.0328663 -0.0588844 0.290096
0.0090384 -0.0132893 0.29743
0.0163377 -0.0413679 0.294528
0.0188372 -0.0451951 0.293822
0.0114758 -0.0309298 0.296043
0.0257364 -0.0520284 0.292189
0.122292 -0.00327195 0.271622
0.114638 -0.0113342 0.274726
0.0306208 -0.0573027 0.29073
0.102544 -0.0192819 0.279039
0.104691 -0.0180073 0.27834
0.0267149 -0.0552687 0.29153
0.0186413 0.0107217 0.297155
0.00893593 -0.0192552 0.297179
0.0645898 -0.0452361 0.287317
0.0446049 -0.057256 0.288976
0.00916134 -0.0112914 0.297596
0.110767 -0.0141901 0.276234
0.0175003 -0.0446742 0.294068
0.0348097 -0.0590641 0.289973
0.0170611 0.008417 0.29738
0.112561 -0.0130773 0.275602
0.106681 -0.0169868 0.27773
0.0133983 0.00215181 0.297692
0.0128565 -0.035243 0.295634
0.0827785 -0.0318761 0.284501
0.121312 -0.00416891 0.272172
0.0226448 -0.0512835 0.292696
0.0343331 -0.0576035 0.290385
0.019486 0.0119899 0.29715
0.017867 -0.0436594 0.294292
0.0806566 -0.0333507 0.284987
0.0551492 -0.0521752 0.288224
0.0527826 -0.05368 0.288402
0.00935019 -0.00941106 0.297788
0.100537 -0.0207496 0.27986
0.0625018 -0.0471319 0.287637
0.0367151 -0.059229 0.289847
0.0986894 -0.0218621 0.280446
0.0146368 -0.0392618 0.295148
0.01013 -0.0273056 0.296691
0.0762152 -0.0365463 0.285894
0.0784864 -0.0349503 0.285481
0.120716 -0.0055442 0.27255
0.025739 -0.0532264 0.292219
0.0248237 -0.0552472 0.291923
0.0115801 -0.0325616 0.296134
0.00892618 -0.021235 0.297254
0.0604292 -0.0488393 0.287851
0.0581391 -0.0505707 0.28803
0.0966291 -0.0232409 0.281129
0.0114422 -0.00186561 0.297956
0.0243163 -0.0533156 0.292367
0.0285537 -0.0572509 0.291293
0.0154573 0.00610384 0.297775
0.0190758 -0.0471773 0.293883
0.0206673 -0.0492789 0.293441
0.0945574 -0.0246359 0.281818
0.0386488 -0.0593053 0.289769
0.00952582 -0.0078342 0.29804
0.0506303 -0.0552692 0.288729
0.12229 -0.00448435 0.272054
0.0118339 -0.0337004 0.296184
0.0857651 -0.0302999 0.284135
0.116939 -0.0100301 0.274311
0.0267102 -0.0572649 0.291602
0.0165246 -0.0433123 0.294748
0.0466106 -0.0572468 0.28911
0.018003 -0.0453948 0.294363
0.0325536 -0.0592868 0.290621
0.0406032 -0.0592763 0.289617
0.0226541 -0.053271 0.292746
0.010303 -0.0293028 0.296805
0.0568099 -0.0518534 0.288349
0.0130301 -0.0371914 0.295822
0.0349648 -0.0607877 0.290082
0.034538 -0.0594752 0.290413
0.0927628 -0.0259234 0.282482
0.0306349 -0.0592599 0.290903
0.00891758 -0.0232446 0.297439
0.0906292 -0.0272916 0.283094
0.0748915 -0.0379133 0.286457
0.0727348 -0.0394796 0.286809
0.0249301 -0.0571668 0.291936
0.00968609 -0.00662346 0.298293
0.0595026 -0.0500732 0.288228
0.0546823 -0.0533833 0.288598
0.118536 -0.00881937 0.273873
0.0257436 -0.0552491 0.292272
0.110645 -0.0152609 0.276884
0.0618423 -0.0484017 0.288053
0.0884616 -0.0287496 0.28371
0.0243781 -0.0553036 0.292402
0.0147268 -0.0412323 0.29537
0.0367384 -0.0609517 0.289998
0.0705615 -0.0412533 0.287202
0.0192147 -0.0491954 0.293902
0.0425924 -0.0592778 0.289584
0.0206389 -0.0512458 0.293502
0.0119394 -0.0353557 0.296332
0.0117467 -0.000517364 0.29845
0.0642124 -0.046654 0.287962
0.108576 -0.0168348 0.277766
0.0365306 -0.0596928 0.290402
0.106767 -0.0179507 0.278411
0.0105102 -0.0313095 0.296891
0.0684738 -0.0431214 0.287554
0.0285272 -0.0592947 0.291404
0.122742 -0.00378928 0.272341
0.0137331 0.00343051 0.298418
0.104659 -0.0192298 0.279168
0.066436 -0.0449008 0.287812
0.112777 -0.0140765 0.27632
0.00898377 -0.0252567 0.297581
0.0182648 -0.0473491 0.294445
0.0132912 -0.0391977 0.295937
0.0267312 -0.0592637 0.29167
0.0775139 -0.0362298 0.28632
0.0226592 -0.055256 0.292808
0.00991799 -0.00508085 0.29864
0.0385918 -0.0609132 0.290026
0.102617 -0.0205523 0.279941
0.100649 -0.0216929 0.280578
0.0847079 -0.0314741 0.284893
0.11462 -0.0129212 0.275728
0.0486234 -0.0572888 0.289305
0.016577 -0.0453055 0.294987
0.116669 -0.0112644 0.27498
0.120597 -0.00733369 0.273415
0.0870585 -0.030009 0.284389
0.122222 -0.0053079 0.27275
0.0385073 -0.0599406 0.29032
0.0608353 -0.0497169 0.288426
0.0526024 -0.0552599 0.289037
0.0251455 -0.0592142 0.291934
0.0192276 -0.0512357 0.29389
0.0257442 -0.0572633 0.292278
0.080225 -0.0346037 0.28591
0.0825384 -0.0330078 0.285442
0.0244044 -0.0573268 0.292405
0.0962417 -0.024444 0.282016
0.0346339 -0.0612841 0.290597
0.063093 -0.047921 0.28832
0.0326815 -0.0613068 0.290837
0.0446173 -0.0592342 0.28968
0.0587221 -0.0514154 0.288661
0.0206127 -0.0532791 0.293531
0.0406122 -0.0607919 0.289982
0.00910681 -0.0272481 0.297686
0.0369549 -0.0623974 0.29015
0.0121966 -0.0373796 0.296483
0.0985667 -0.0231633 0.28142
0.0306177 -0.0613011 0.291136
0.0106185 -0.03327 0.297053
0.0194217 0.0123207 0.29823
0.0148295 -0.0431952 0.29561
0.00800102 -0.0151991 0.298632
0.00794649 -0.0172339 0.29853
0.0366763 -0.0613854 0.290489
0.0133014 -0.0405356 0.296112
0.00808803 -0.0132246 0.298786
0.118702 -0.00979306 0.274461
0.0383562 -0.0623152 0.290112
0.0183953 -0.0492962 0.294548
0.0079178 -0.0192688 0.298489
0.0226535 -0.0572511 0.29282
0.0946917 -0.0256069 0.282699
0.0158068 0.00733253 0.298735
0.0284631 -0.0612624 0.291523
0.067776 -0.0443891 0.28808
0.0103393 -0.00320418 0.299067
0.0566451 -0.0532802 0.289021
0.0191595 -0.0532902 0.2939
0.0121454 0.000914491 0.299066
0.0252211 -0.0611247 0.291919
0.0206435 -0.0553116 0.293437
0.0266613 -0.0612407 0.291787
0.078842 -0.035897 0.286525
0.00822269 -0.0112527 0.29901
0.0424934 -0.0606326 0.290037
0.0901282 -0.0284651 0.284028
0.0767003 -0.0374226 0.286923
0.00793227 -0.0212996 0.298487
0.0244327 -0.0592795 0.292415
0.0386527 -0.0615635 0.290406
0.0129404 0.00261746 0.299085
0.0925742 -0.0270005 0.283421
0.00918218 -0.0292457 0.297819
0.0165899 -0.0472681 0.295175
0.00850644 -0.00932485 0.299132
0.0259145 -0.0593941 0.292307
0.0701736 -0.0425405 0.287943
0.120314 -0.00853179 0.274045
0.0465864 -0.0591427 0.289795
0.0745315 -0.0391046 0.28735
0.00893356 -0.00734165 0.299203
0.0180729 0.0107763 0.298705
0.013863 -0.0417385 0.296198
0.0110091 -0.00130301 0.299258
0.110546 -0.0166592 0.277816
0.0141868 0.00486205 0.299091
0.0123574 -0.0393174 0.296636
0.0506129 -0.0572549 0.289575
0.0723828 -0.0408296 0.287731
0.1087 -0.0178391 0.278506
0.112617 -0.0152805 0.277118
0.0106387 -0.0352612 0.297286
0.0184386 -0.0512721 0.294577
0.00796384 -0.0233502 0.298563
0.104491 -0.020429 0.28003
0.0149598 -0.0452319 0.29578
0.106597 -0.0192258 0.279338
0.114742 -0.0139246 0.276412
0.0165864 0.00874784 0.299021
0.0206713 -0.0572669 0.293362
0.0151545 0.00657346 0.299163
0.0647314 -0.047484 0.288664
0.0226765 -0.0592366 0.292853
0.0406443 -0.0616999 0.290393
0.0189692 -0.0553161 0.293893
0.0445797 -0.0605414 0.290089
0.0668915 -0.0457066 0.288518
0.0626768 -0.049291 0.288876
0.00929999 -0.0312653 0.29792
0.0887725 -0.0296768 0.284718
0.102674 -0.0215769 0.28075
0.0865171 -0.0310992 0.285268
0.0093078 -0.00541864 0.299529
0.0326725 -0.0632552 0.291159
0.0139175 -0.0435426 0.296232
0.0546332 -0.0552676 0.289494
0.0842989 -0.032582 0.285805
0.12223 -0.00715127 0.273617
0.0306623 -0.0632264 0.291413
0.116547 -0.0127571 0.275889
0.0450044 -0.0602104 0.290192
0.0484697 -0.0588535 0.289918
0.0251707 -0.0628273 0.29205
0.0173904 0.00996302 0.299129
0.0346706 -0.0632799 0.29099
0.0245091 -0.0613217 0.292452
0.0263902 -0.0613803 0.292277
0.00803044 -0.0253207 0.29864
0.069162 -0.0438917 0.288414
0.0166441 -0.0492624 0.295282
0.0184095 -0.0532628 0.29454
0.0294706 -0.0603916 0.292263
0.0459784 -0.0604647 0.29011
0.0915111 -0.0281317 0.284197
0.100572 -0.0229626 0.281593
0.0126084 -0.0413355 0.296771
0.0267558 -0.0632013 0.291943
0.0606224 -0.0512643 0.289206
0.0285879 -0.0632707 0.291784
0.0107753 -0.0372492 0.297415
0.0366745 -0.0632743 0.290882
0.0426834 -0.0615754 0.290444
0.00943139 -0.0332362 0.297974
0.0714046 -0.0421663 0.288291
0.0206747 -0.0592606 0.293359
0.0189015 -0.0573184 0.293867
0.00955227 -0.00388878 0.299825
0.0525217 -0.0569738 0.289822
0.00815476 -0.0273129 0.298661
0.118619 -0.0113167 0.275341
0.0150674 -0.0471819 0.295925
0.0114124 0.000366335 0.299836
0.0467872 -0.0599964 0.290257
0.0134727 0.00416725 0.299741
0.0226438 -0.0612632 0.292897
0.0737977 -0.040345 0.288064
0.0501603 -0.0585147 0.290043
0.00725478 -0.0153435 0.299636
0.0966836 -0.0253822 0.282993
0.0140594 -0.0452608 0.296364
0.00738932 -0.0133907 0.299741
0.00717881 -0.0173023 0.299546
0.123826 -0.00565063 0.273354
0.0990695 -0.0240953 0.2823
0.120694 -0.00946324 0.274676
0.0944791 -0.0266889 0.283663
0.0585605 -0.0532006 0.289559
0.0386702 -0.0633035 0.290867
0.016653 -0.0512815 0.295302
0.0828357 -0.0339506 0.286524
0.0183719 -0.0552289 0.294508
0.123953 -0.00390893 0.273403
0.0785115 -0.0369524 0.287405
0.00712773 -0.0192572 0.299517
0.0807125 -0.0354148 0.286995
0.106201 -0.0202941 0.280084
0.0762476 -0.0386359 0.287821
0.00946645 -0.03489 0.298086
0.00754369 -0.0116159 0.299958
0.00822542 -0.0292973 0.298741
0.0446275 -0.0613811 0.290544
0.0564435 -0.0549067 0.289808
0.112501 -0.0164895 0.27796
0.0263649 -0.0634161 0.292361
0.00712694 -0.0212414 0.299484
0.0245621 -0.0632969 0.292547
0.0271168 -0.0648614 0.29199
0.110704 -0.017676 0.27863
0.0173555 -0.0580814 0.294156
0.0188621 -0.0592785 0.293844
0.0152389 -0.0492136 0.295934
0.0541445 -0.056548 0.290006
0.0108348 -0.0392477 0.297618
0.12373 -0.00747272 0.273643
0.0126005 -0.0432657 0.297016
0.108568 -0.0191041 0.279462
0.0206557 -0.0612654 0.293396
0.0516178 -0.0581876 0.290195
0.0487745 -0.059758 0.290385
0.0282727 -0.0640085 0.292212
0.116636 -0.0137241 0.276581
0.0166172 -0.0532738 0.295255
0.0288138 -0.0651286 0.291922
0.00713263 -0.0232416 0.299513
0.00834833 -0.0312828 0.298771
0.0182991 -0.0572095 0.294457
0.0406164 -0.0632965 0.290961
0.104673 -0.0214204 0.280892
0.0906255 -0.0293096 0.285052
0.0929029 -0.0279417 0.284458
0.114648 -0.0152929 0.277401
0.0173653 -0.0594871 0.294091
0.0686072 -0.04525 0.289099
0.0306671 -0.0652621 0.29178
0.118306 -0.0125167 0.276019
0.0142996 -0.0473237 0.296484
0.0117831 0.00141384 0.300348
0.0326321 -0.0652841 0.291594
0.00784981 -0.00881863 0.30036
0.0706957 -0.0434296 0.288931
0.0226526 -0.0632834 0.293024
0.0666191 -0.0471609 0.289342
0.0299103 -0.0641775 0.292189
0.0728509 -0.0416721 0.288705
0.009834 -0.00265337 0.30049
0.0885637 -0.0306842 0.285701
0.0156619 -0.0494658 0.296184
0.0346526 -0.0652603 0.291483
0.0644975 -0.0491399 0.289567
0.0166098 -0.0552587 0.295125
0.102573 -0.0227765 0.281763
0.0188012 -0.0612364 0.293818
0.057868 -0.0544875 0.290026
0.0110744 -0.0412 0.29769
0.107353 -0.0201593 0.280196
0.0624207 -0.0509629 0.289736
0.0750462 -0.0400052 0.288464
0.00712999 -0.0252465 0.29961
0.00975794 -0.0373973 0.298264
0.0528678 -0.0578605 0.290373
0.0556175 -0.0561173 0.290207
0.0602871 -0.0527121 0.28992
0.0466328 -0.0612864 0.290754
0.0152531 -0.0513064 0.295982
0.122764 -0.00799607 0.274488
0.0084691 -0.0332838 0.298831
0.0264884 -0.0653597 0.292467
0.100735 -0.0239579 0.282526
0.0165869 -0.0572525 0.294941
0.098496 -0.0251617 0.283216
0.0181198 -0.0592355 0.294463
0.0173721 -0.0613552 0.294074
0.0283108 -0.0655294 0.292323
0.0206518 -0.0632806 0.293463
0.0506943 -0.0593751 0.290618
0.012607 -0.0452541 0.297239
0.042604 -0.0632427 0.291109
0.0290524 -0.0665699 0.292057
0.0366553 -0.0652768 0.291499
0.0962357 -0.0264841 0.283928
0.0246021 -0.065274 0.292777
0.0156628 -0.0511864 0.296202
0.00715646 -0.0272405 0.299698
0.114106 -0.0163721 0.278089
0.120537 -0.0111466 0.275628
0.0802145 -0.0364778 0.28787
0.0825031 -0.0349163 0.287422
0.0143192 -0.0492829 0.296655
0.0303336 -0.0655897 0.292267
0.0151237 -0.0533348 0.295926
0.0308124 -0.0667841 0.291975
0.0869889 -0.0320202 0.28648
0.122384 -0.00929846 0.274955
0.00799725 -0.00712526 0.300929
0.0847212 -0.0334938 0.287023
0.00855203 -0.0353026 0.298939
0.018811 -0.0632673 0.293829
0.00981342 -0.0393862 0.298406
0.0172309 0.0102679 0.30049
0.0101855 -0.00114183 0.300986
0.056912 -0.0557724 0.290428
0.0165068 -0.0592364 0.294844
0.112659 -0.0175142 0.278792
0.0593303 -0.0540291 0.290323
0.0111162 -0.0433154 0.297878
0.0138425 0.00547503 0.300857
0.119704 -0.0124013 0.276151
0.063871 -0.050419 0.290036
0.00719241 -0.0292228 0.299739
0.022687 -0.0652657 0.29324
0.0122094 0.00285835 0.301018
0.0547153 -0.057413 0.290657
0.0181105 -0.0613044 0.294427
0.110586 -0.0189326 0.279618
0.00846864 -0.00525993 0.301131
0.0156621 -0.0529923 0.296187
0.0386207 -0.0652423 0.291607
0.0148945 -0.0553399 0.295803
0.0326867 -0.0669023 0.291959
0.0659567 -0.0486225 0.289953
0.00914348 -0.00334407 0.301163
0.0170961 -0.0634081 0.294082
0.0900083 -0.0304063 0.285987
0.106647 -0.0212782 0.281049
0.0109651 0.000700893 0.301155
0.108819 -0.0200662 0.280322
0.124175 -0.0053432 0.27455
0.0701159 -0.0448282 0.289674
0.0681264 -0.046696 0.289863
0.00684125 -0.0112557 0.301116
0.0100885 -0.0413614 0.29839
0.0947085 -0.0276985 0.284808
0.0143117 -0.0512714 0.296684
0.0126241 -0.0472526 0.297435
0.0925346 -0.0289524 0.28541
0.118697 -0.0134171 0.276752
0.0165261 -0.0612731 0.294679
0.116619 -0.0150737 0.277554
0.0486154 -0.0612673 0.291126
0.0446431 -0.0632098 0.291348
0.00864134 -0.0372633 0.299032
0.104563 -0.0225475 0.281855
0.00724852 -0.0312387 0.299786
0.00719439 -0.00933444 0.301269
0.0285834 -0.0673029 0.292499
0.0745374 -0.041129 0.289234
0.0160055 0.00886319 0.300948
0.0346228 -0.0668327 0.29196
0.00644916 -0.0132702 0.301149
0.123851 -0.00751579 0.274797
0.0206549 -0.0652414 0.293646
0.0723988 -0.042924 0.289529
0.00614342 -0.0172399 0.300962
0.0112847 -0.0451052 0.297913
0.00623211 -0.0152342 0.301073
0.0266063 -0.0672739 0.292747
0.0788846 -0.0378688 0.288588
0.0767554 -0.0394536 0.28895
0.00608578 -0.0192684 0.300887
0.0146379 -0.0573196 0.295718
0.0144335 0.00660895 0.301182
0.0305092 -0.0675007 0.292372
0.115473 -0.0160403 0.278178
0.00608252 -0.0212801 0.300808
0.0188198 -0.0652329 0.293893
0.0143426 -0.0532711 0.296547
0.0863406 -0.032899 0.287149
0.013087 0.00454734 0.301339
0.052608 -0.0592488 0.291066
0.102678 -0.0237148 0.282677
0.0181098 -0.0633054 0.294414
0.0405546 -0.0651969 0.291764
0.0629551 -0.0517666 0.290498
0.0365177 -0.0666954 0.29199
0.0246321 -0.0672833 0.293102
0.0607943 -0.0535445 0.290656
0.0146355 -0.0593057 0.295488
0.00608392 -0.0232854 0.300794
0.0156634 -0.0554652 0.296213
0.032555 -0.0675835 0.2923
0.0165225 -0.0632651 0.29461
0.00730902 -0.03326 0.299852
0.00943111 -0.00182212 0.301643
0.0652138 -0.0498975 0.290415
0.0169782 -0.0655016 0.294118
0.0840508 -0.0345272 0.287813
0.0586677 -0.0553117 0.290865
0.014627 -0.0612547 0.295191
0.0127342 -0.0492287 0.297521
0.0142179 -0.055199 0.296408
0.10067 -0.0249099 0.283473
0.0101515 -0.0432621 0.298559
0.0815293 -0.0361963 0.28838
0.00864565 -0.0392659 0.299179
0.12096 -0.0120212 0.27632
0.0672963 -0.0480131 0.290343
0.0226479 -0.0672728 0.293475
0.122271 -0.010866 0.275863
0.0114283 -0.0472507 0.298008
0.00608486 -0.0252841 0.300839
0.0383402 -0.0664901 0.292072
0.0425097 -0.0649124 0.291853
0.0888072 -0.0316468 0.286903
0.0153603 0.00814891 0.301497
0.0131855 -0.057916 0.2961
0.0694028 -0.0461586 0.290274
0.00735721 -0.00763588 0.301831
0.0465637 -0.0631686 0.291669
0.114612 -0.0172953 0.278929
0.0912586 -0.0302452 0.286362
0.00736143 -0.0352443 0.299926
0.0207154 -0.0672039 0.293793
0.0146188 -0.0632555 0.295042
0.0173546 -0.0666695 0.294141
0.0141531 -0.0570126 0.296346
0.0346717 -0.067778 0.292362
0.0182163 -0.0653586 0.294402
0.0114289 0.00215279 0.301897
0.112535 -0.0187476 0.279759
0.0565907 -0.0572344 0.291211
0.00611065 -0.027294 0.300837
0.0188509 -0.0672151 0.293973
0.123923 -0.00928645 0.275409
0.0128029 -0.0512638 0.297498
0.110679 -0.0199102 0.28047
0.0395993 -0.0661146 0.292186
0.0505816 -0.0611518 0.291574
0.0129847 -0.059544 0.295972
0.108586 -0.021115 0.281219
0.0737681 -0.0424242 0.28997
0.0989515 -0.0261289 0.284348
0.0164797 -0.0652932 0.294615
0.010418 -0.0453208 0.298614
0.106319 -0.0223691 0.282024
0.0141498 -0.0586289 0.296164
0.118529 -0.0147956 0.277686
0.00865015 -0.0412715 0.299333
0.0119647 -0.0481526 0.298189
0.0966677 -0.0273925 0.285104
0.00615341 -0.0293065 0.300809
0.116822 -0.0160507 0.278358
0.0443984 -0.0645868 0.291984
0.00765367 -0.00632411 0.302167
0.0945097 -0.0286135 0.285775
0.0784123 -0.0389124 0.289415
0.0806408 -0.0372845 0.289022
0.0128688 -0.0613688 0.295806
0.00744172 -0.0372504 0.299998
0.0286134 -0.0692842 0.292963
0.0114299 -0.0493472 0.29813
0.0135061 0.00600615 0.302042
0.0762714 -0.0405855 0.289803
0.0367211 -0.0676032 0.29246
0.0266082 -0.0692501 0.293178
0.082837 -0.0358179 0.288664
0.030613 -0.0692355 0.292817
0.0483894 -0.062751 0.291894
0.0126385 -0.0532946 0.29746
0.00549276 -0.015566 0.30202
0.0412281 -0.0661167 0.292271
0.00620416 -0.0312872 0.300797
0.120651 -0.0132591 0.27707
0.0114791 -0.0614208 0.295966
0.00541752 -0.0172939 0.301951
0.014607 -0.0652532 0.295015
0.0852317 -0.0342638 0.288214
0.0667363 -0.0492647 0.290922
0.0545168 -0.0591372 0.291628
0.0246504 -0.0692598 0.29346
0.104676 -0.0235116 0.282869
0.0645422 -0.0513235 0.29108
0.0118474 -0.0494664 0.298234
0.0456918 -0.0643732 0.292062
0.00534465 -0.0192933 0.301891
0.0125995 -0.0572222 0.29684
0.0184008 -0.0673198 0.294421
0.0126068 -0.0552758 0.297224
0.00565021 -0.014342 0.3022
0.0625122 -0.0531501 0.291256
0.0200851 -0.0676519 0.294256
0.123827 -0.0107838 0.275921
0.102579 -0.0246402 0.283643
0.122482 -0.0117142 0.276495
0.00529437 -0.0213197 0.301843
0.0687666 -0.0474331 0.290884
0.0192492 -0.0688622 0.29408
0.012657 -0.0632951 0.295686
0.0124678 -0.0591381 0.296555
0.0104674 -0.0472553 0.298767
0.0226332 -0.0692638 0.293769
0.0208337 -0.069136 0.29394
0.0326334 -0.0692668 0.292838
0.016606 -0.0672851 0.294644
0.0386826 -0.0673835 0.292545
0.0062629 -0.0332751 0.300807
0.00981136 -0.000530915 0.302549
0.090571 -0.031165 0.287157
0.00570511 -0.0129109 0.302387
0.01137 -0.0513925 0.298108
0.0523973 -0.0607241 0.291904
0.00750319 -0.0391426 0.300095
0.0426014 -0.0658861 0.292388
0.0728299 -0.0437539 0.290569
0.0052577 -0.0232534 0.301802
0.00867189 -0.0432739 0.299511
0.070823 -0.045562 0.290804
0.0928508 -0.0298714 0.286629
0.00785409 -0.0048296 0.302633
0.0604648 -0.0550524 0.291531
0.0498682 -0.0623298 0.292087
0.0109904 -0.0632572 0.295953
0.011814 -0.0513222 0.298225
0.0459253 -0.0713429 0.290711
0.0583856 -0.0567894 0.291687
0.00525686 -0.025251 0.301752
0.0121348 -0.0610582 0.296387
0.0469336 -0.0640791 0.292269
0.088537 -0.0325127 0.287811
0.0118568 0.00343761 0.302651
0.0751209 -0.0419529 0.290433
0.00589788 -0.0111634 0.302662
0.0114218 -0.0532527 0.29799
0.0126262 -0.0652882 0.295562
0.0985769 -0.0269614 0.285202
0.00756788 -0.0407666 0.300124
0.00632039 -0.0352791 0.300847
0.0146202 -0.0672714 0.295055
0.0959927 -0.0283497 0.285979
0.0560903 -0.0586068 0.29193
0.0118732 -0.0525789 0.298185
0.0052568 -0.0272518 0.301747
0.114512 -0.0185325 0.27994
0.0149951 0.00810001 0.30255
0.0346371 -0.0692726 0.292971
0.100787 -0.0259062 0.284625
0.0105546 -0.049248 0.298859
0.0185677 -0.0693303 0.294465
0.112674 -0.0197249 0.280685
0.0204109 -0.0694261 0.294343
0.116608 -0.0172097 0.279263
0.110571 -0.0209697 0.281456
0.0142106 0.00711754 0.302706
0.00882984 -0.0452389 0.299598
0.0406059 -0.0672762 0.292777
0.0447086 -0.0655034 0.292585
0.0122054 -0.0632028 0.296238
0.0111106 -0.055489 0.297836
0.021176 -0.0707038 0.294068
0.0511254 -0.0620686 0.292331
0.0109057 -0.0654195 0.295847
0.0867279 -0.0338436 0.288554
0.0102263 0.000860167 0.303036
0.00524258 -0.0292848 0.30175
0.0125244 0.00474055 0.302918
0.118747 -0.0157904 0.278551
0.00638967 -0.0372787 0.300852
0.0062045 -0.00922885 0.303025
0.0221374 -0.0700015 0.294216
0.0108254 -0.057396 0.29756
0.0228323 -0.0707946 0.293999
0.0106773 -0.0592878 0.29722
0.0800269 -0.0384822 0.289973
0.120462 -0.014529 0.277939
0.00823792 -0.00325559 0.303142
0.0166451 -0.0692602 0.294787
0.00671537 -0.00729784 0.303112
0.0824688 -0.0367316 0.289543
0.00760228 -0.0430698 0.300139
0.0846544 -0.0353045 0.289141
0.0126263 -0.0672313 0.295528
0.106586 -0.0233104 0.283048
0.00900851 -0.00131233 0.303225
0.0618786 -0.0545554 0.291933
0.0104999 -0.0612129 0.296941
0.0488117 -0.0636565 0.292581
0.0246832 -0.0710742 0.293902
0.10891 -0.0221037 0.282299
0.00523565 -0.0312368 0.30174
0.01104 0.00249293 0.303194
0.0661203 -0.0508367 0.291738
0.00931295 -0.0655882 0.296106
0.0574461 -0.0580984 0.292229
0.064088 -0.052704 0.291874
0.0266337 -0.0712515 0.293759
0.0105827 -0.0512571 0.298901
0.0682303 -0.0488072 0.291623
0.0598585 -0.0563376 0.292118
0.00646825 -0.0392841 0.300841
0.104442 -0.024492 0.283876
0.00775672 -0.0438556 0.300189
0.0366216 -0.0692737 0.29319
0.122308 -0.0131507 0.277437
0.0072223 -0.00546946 0.303353
0.0104773 -0.0632588 0.296645
0.0286067 -0.0712262 0.293631
0.0133749 0.00614429 0.303148
0.0550314 -0.0599729 0.292403
0.092488 -0.0306839 0.287459
0.0703009 -0.0468612 0.291554
0.00896907 -0.0472552 0.299725
0.0108076 -0.0672753 0.295815
0.124043 -0.0115322 0.276823
0.00480762 -0.0153092 0.303144
0.122837 -0.017296 0.277074
0.0527531 -0.061555 0.292583
0.0146206 -0.0692623 0.295239
0.00502811 -0.0133614 0.303291
0.0723888 -0.044949 0.291435
0.115961 -0.0182908 0.280041
0.0745443 -0.0430942 0.291195
0.00521172 -0.0332989 0.301784
0.00457427 -0.0173101 0.303151
0.0947211 -0.0295682 0.28702
0.0306318 -0.0712372 0.293638
0.0975087 -0.0281907 0.286268
0.0065716 -0.0412786 0.300846
0.0205663 -0.0713047 0.294535
0.0466401 -0.0652684 0.292969
0.0104602 -0.0532729 0.298864
0.0103009 -0.0651864 0.296509
0.0225178 -0.0715044 0.294381
0.00921566 -0.0675093 0.296038
0.00931289 -0.0580571 0.298037
0.0103673 -0.0551208 0.298565
0.00789549 -0.0454627 0.300267
0.076775 -0.0413645 0.291017
0.0043995 -0.0192798 0.303172
0.0426259 -0.0672901 0.293199
0.0836389 -0.036378 0.289828
0.0126923 -0.0692277 0.295581
0.0788866 -0.039776 0.290722
0.0185917 -0.0712663 0.294796
0.00526717 -0.0114304 0.303605
0.00917804 -0.0594852 0.297858
0.100512 -0.0267486 0.285531
0.0812273 -0.0380755 0.290369
0.0052097 -0.0352443 0.301817
0.00431875 -0.0212412 0.303139
0.0244456 -0.0719788 0.294281
0.0325653 -0.0711602 0.293694
0.058822 -0.0576482 0.292593
0.0100304 -0.0570236 0.298403
0.00911856 -0.0491907 0.299823
0.00949358 0.000167019 0.303822
0.061091 -0.0558493 0.292511
0.0042743 -0.0232655 0.303075
0.0862454 -0.0347679 0.289426
0.0386049 -0.0692225 0.293484
0.0108288 -0.0692621 0.295811
0.0506556 -0.0632903 0.292999
0.121907 -0.0143345 0.278125
0.102744 -0.0257232 0.284961
0.00858833 -0.0632675 0.297245
0.112526 -0.0207657 0.281672
0.0267165 -0.0723471 0.29409
0.0632634 -0.0540234 0.292436
0.114653 -0.0195085 0.280923
0.00871666 -0.0613953 0.297656
0.0261638 -0.0721495 0.294202
0.00427284 -0.0252667 0.302968
0.0885593 -0.0333773 0.288949
0.0654231 -0.0520932 0.292343
0.118559 -0.0169732 0.27949
0.00854367 -0.0652591 0.296876
0.0074667 -0.00393229 0.303971
0.0909281 -0.0320105 0.288417
0.0166169 -0.0712788 0.295161
0.00899429 -0.0692888 0.295981
0.0567469 -0.0593938 0.292814
0.105883 -0.0243493 0.284051
0.00660478 -0.043267 0.300964
0.00427168 -0.0272771 0.302884
0.00979451 -0.058614 0.298285
0.108577 -0.0229965 0.283178
0.00547612 -0.00992788 0.303948
0.01038 -0.067201 0.296467
0.0345303 -0.0709259 0.293767
0.00516739 -0.0373073 0.301842
0.120665 -0.015515 0.278812
0.0120377 -0.068166 0.296242
0.00800306 -0.0472675 0.300435
0.0285777 -0.0723702 0.294123
0.11073 -0.0219633 0.282537
0.00707192 -0.0696688 0.296098
0.00855675 -0.0672255 0.296638
0.00426025 -0.0292655 0.30284
0.0146228 -0.0712497 0.295463
0.00926969 -0.0512453 0.299817
0.0986845 -0.0280128 0.286509
0.117321 -0.0181308 0.280218
0.0965718 -0.0291041 0.287162
0.054582 -0.0611837 0.293136
0.0444955 -0.0670813 0.293557
0.0299601 -0.0724097 0.294142
0.0940494 -0.0304933 0.287899
0.12402 -0.0128289 0.277704
0.0405184 -0.0689382 0.293721
0.00425427 -0.0312907 0.302786
0.00516096 -0.0393011 0.30184
0.00572003 -0.00857253 0.304275
0.122724 -0.0140786 0.278275
0.030827 -0.0721941 0.29418
0.0736994 -0.0445526 0.292042
0.012065 -0.0693466 0.296238
0.0126611 -0.0712475 0.295785
0.048527 -0.0651295 0.29349
0.0107343 -0.0712455 0.295878
0.036551 -0.0707149 0.293948
0.00836714 -0.0591767 0.298622
0.00812027 -0.0607301 0.298321
0.00890462 -0.0712507 0.295973
0.00861723 -0.0572512 0.299011
0.0760479 -0.0425866 0.291843
0.00663187 -0.0452652 0.301136
0.0784117 -0.0407159 0.291499
0.00849914 -0.0692404 0.2965
0.0104196 -0.0692507 0.296437
0.00422857 -0.0332541 0.302758
0.00651243 -0.0713999 0.29606
0.00904135 -0.0533851 0.299776
0.00786845 -0.00264452 0.304515
0.00817901 -0.0493473 0.30052
0.0646548 -0.0533689 0.292893
0.00877472 -0.0553499 0.29947
0.00707619 -0.063515 0.297893
0.0246177 -0.0732901 0.294701
0.080584 -0.0391324 0.291207
0.0226534 -0.0732605 0.294869
0.00986593 0.00141688 0.304517
0.0132979 0.00651743 0.30433
-0.010272 -0.0684311 0.296736
0.107123 -0.0241903 0.284225
0.0206218 -0.0732294 0.295054
0.0626115 -0.0552291 0.293048
0.104583 -0.0254394 0.285085
0.00512861 -0.0412475 0.301884
0.0380515 -0.0704115 0.294048
0.0667232 -0.0515083 0.292872
0.0422644 -0.0685876 0.293925
0.0524621 -0.0629928 0.293537
0.0330553 -0.0721366 0.29427
0.00423152 -0.0352713 0.302712
0.0266044 -0.0733421 0.294638
0.102426 -0.0265355 0.285849
0.0828235 -0.037629 0.290923
0.00672402 -0.0653867 0.297649
0.00376222 -0.0170116 0.304335
0.00367056 -0.0187074 0.304243
0.0688388 -0.049477 0.292816
0.00661216 -0.0672697 0.297257
0.060551 -0.0571539 0.293276
0.0852286 -0.036049 0.290486
0.0186253 -0.0732847 0.295346
0.0463557 -0.0666831 0.293859
0.0708322 -0.0475046 0.292706
0.0879485 -0.0343162 0.289899
0.00658574 -0.0692415 0.296871
0.00596105 -0.00703373 0.304776
0.1166 -0.0191859 0.281105
0.0904856 -0.0328483 0.289341
0.0122068 -0.0713539 0.296222
0.0583973 -0.0589662 0.293432
0.00351417 -0.0218044 0.304141
0.00644227 -0.0728135 0.296088
0.00388945 -0.015126 0.304582
0.00829652 -0.0512886 0.300524
0.0166189 -0.0732321 0.295596
0.114548 -0.0204942 0.281915
0.00349271 -0.0233872 0.304074
0.0347259 -0.0718931 0.294357
0.00419117 -0.0372332 0.302686
0.00885619 -0.073107 0.295992
0.00527539 -0.0432126 0.301894
0.0393143 -0.0701814 0.294236
0.0104199 -0.0712941 0.296403
0.00854999 -0.0713112 0.296467
0.0034287 -0.0253413 0.303973
0.0503108 -0.0646479 0.293843
0.0109039 -0.0729752 0.296007
0.0728801 -0.0457341 0.292683
0.0286325 -0.0733931 0.294724
0.00493247 -0.0732024 0.296134
0.120497 -0.016702 0.279793
0.00531977 -0.0657333 0.297889
0.00669323 -0.0472412 0.301348
0.0127578 -0.0730192 0.295963
0.0927017 -0.0317121 0.288961
0.100589 -0.0276831 0.286734
0.118792 -0.0179283 0.280481
0.00823616 -0.00121255 0.305019
0.00339008 -0.0273725 0.303888
0.110555 -0.0228426 0.283491
0.0146065 -0.0732039 0.29587
0.112666 -0.0217305 0.282772
0.00660315 -0.0712179 0.296681
0.00417524 -0.0392365 0.302639
0.0105795 0.00283142 0.305016
0.00759836 -0.0557885 0.299984
0.00637015 -0.0631166 0.298559
0.0306338 -0.0732414 0.294726
0.00816211 -0.0531102 0.300477
0.12247 -0.015272 0.279181
0.0564952 -0.0607161 0.293767
0.0064589 -0.00532305 0.305141
0.00665027 -0.0612718 0.298978
0.00711561 -0.00345283 0.305162
0.077377 -0.0420547 0.292286
0.00406878 -0.0131612 0.304956
0.00333347 -0.0293565 0.303842
0.0751835 -0.0438913 0.292599
0.0112546 0.00393909 0.305064
0.0540077 -0.0625531 0.293904
0.0986424 -0.0287459 0.287498
0.0478933 -0.0663327 0.294144
0.0060916 -0.0647778 0.298303
0.00499891 -0.00931737 0.305156
0.00537633 -0.0451267 0.301973
0.0408775 -0.0698657 0.294452
0.00490089 -0.0674284 0.2978
0.00791319 -0.054816 0.300315
0.00465914 -0.0693011 0.297392
0.00723867 -0.057525 0.299849
0.0367078 -0.071683 0.294603
0.00441974 -0.0112509 0.305189
0.00464918 -0.0712751 0.296966
0.00680262 -0.0593596 0.299536
0.0032566 -0.0313442 0.303812
0.106601 -0.0250355 0.285159
0.108733 -0.0240265 0.284443
0.0451211 -0.0679428 0.294374
0.0865123 -0.0356254 0.290783
0.0820913 -0.0386125 0.291684
0.00415872 -0.0412827 0.302641
0.0796834 -0.0403931 0.292131
0.0662023 -0.0526799 0.293548
0.008584 -0.0732583 0.296468
0.00913997 0.000656967 0.305369
0.0845167 -0.0369486 0.291273
0.0106745 -0.074342 0.29616
0.0105494 -0.0734345 0.296401
0.0124702 -0.0736242 0.296294
0.00659499 -0.0733142 0.296562
0.00678619 -0.0492771 0.301503
0.115846 -0.020322 0.282057
0.0700544 -0.0488874 0.293416
0.0641317 -0.054685 0.293756
0.00315463 -0.0332988 0.30378
0.0619614 -0.0566204 0.293866
0.0681229 -0.0508772 0.293558
0.104272 -0.0263124 0.286093
0.0490442 -0.06601 0.294378
0.124562 -0.0134686 0.278791
0.0742135 -0.0449996 0.293078
0.0326212 -0.0732815 0.294946
0.0141977 -0.0740691 0.296216
0.0946314 -0.0310517 0.288999
0.0148894 -0.0743735 0.296121
0.00268283 -0.0712683 0.297275
0.00462511 -0.073285 0.296771
0.00549491 -0.0464011 0.302139
0.00284218 -0.0694573 0.297729
0.0167455 -0.0745618 0.296036
0.00306327 -0.0681962 0.298025
0.0598061 -0.0585873 0.294059
0.0426182 -0.0694618 0.294692
0.0577233 -0.0603308 0.294148
0.00428948 -0.0433049 0.302661
0.00536151 -0.00750841 0.305638
0.0722994 -0.0468434 0.293392
0.0890955 -0.0342397 0.290504
0.00307718 -0.0353126 0.303737
0.0386534 -0.0713003 0.29485
0.0187368 -0.0748061 0.295919
0.0206614 -0.074966 0.295781
0.00266452 -0.0732658 0.296917
0.00288974 -0.019329 0.305211
0.003029 -0.0173538 0.305337
0.0969185 -0.0299913 0.288529
0.0555041 -0.0620171 0.294317
0.0785881 -0.04152 0.292683
0.0921681 -0.0325225 0.289849
0.00459912 -0.0652251 0.298815
0.00279552 -0.0212804 0.305135
0.122062 -0.0163663 0.280003
0.0764658 -0.0432643 0.293026
0.022609 -0.0751133 0.295692
0.100197 -0.0284547 0.287644
0.00426754 -0.0669892 0.298495
0.00679359 -0.0512782 0.301547
0.00961774 0.00186852 0.305797
0.118502 -0.0189775 0.281438
0.00319771 -0.0153626 0.30557
0.0528906 -0.0638891 0.294517
0.00301762 -0.0372976 0.303677
0.00752225 -0.0018935 0.305879
0.0467753 -0.0675727 0.294749
0.00569633 -0.0477662 0.302193
0.102634 -0.0273209 0.286979
0.00384157 -0.0684426 0.298238
0.00264395 -0.0232671 0.305144
0.000943452 -0.0698673 0.297962
0.00519418 -0.0614932 0.299769
0.0246305 -0.0752046 0.295655
0.00548765 -0.0601036 0.300056
0.000703694 -0.0713355 0.297651
0.00472586 -0.0633137 0.299429
0.000620939 -0.0732405 0.297206
0.114654 -0.0214315 0.283019
0.112658 -0.0225598 0.283745
0.00592227 -0.0588583 0.300362
0.00631071 -0.0571338 0.300693
0.00441409 -0.0452987 0.302747
0.0346257 -0.0732215 0.295246
0.00677094 -0.0532923 0.30141
0.026606 -0.0750936 0.295622
0.00343408 -0.0135041 0.305855
0.0066041 -0.0552619 0.301074
0.0653122 -0.0541117 0.294195
0.1207 -0.0176682 0.28084
0.0506808 -0.0655375 0.294776
0.0810153 -0.0399128 0.292578
0.00294501 -0.0392805 0.303656
0.0024706 -0.0252794 0.305176
0.0884605 -0.0349173 0.291115
0.105555 -0.0261494 0.286305
0.00233981 -0.0688535 0.298417
0.00859455 -0.0752895 0.296763
0.00661519 -0.0752872 0.29682
0.0023969 -0.0272517 0.305079
0.0106096 -0.0752821 0.296726
0.00464285 -0.0752734 0.296882
0.063411 -0.0559382 0.294427
0.00266799 -0.0752872 0.296932
0.0589696 -0.0597775 0.29461
0.00177184 -0.0702822 0.298167
0.124454 -0.0148537 0.27953
0.00572645 -0.049242 0.302318
0.00233958 -0.0292476 0.304964
0.0674313 -0.0521743 0.294273
0.0612186 -0.0579416 0.294555
0.108511 -0.0248276 0.285442
0.117236 -0.020106 0.282348
0.028575 -0.0749941 0.29569
0.0694358 -0.0501314 0.294178
0.0801889 -0.0406701 0.292912
0.0165394 -0.075537 0.296499
0.0146162 -0.0753467 0.296649
-0.00115857 -0.0716481 0.297923
0.0905618 -0.0337807 0.290786
0.0836124 -0.0381821 0.29232
0.110748 -0.0237872 0.284733
0.00226118 -0.0312445 0.304839
0.0860855 -0.0365078 0.291833
0.00288709 -0.0412839 0.303649
0.0663406 -0.0532858 0.294429
0.0126578 -0.0752805 0.296819
0.0445443 -0.0691931 0.295225
0.0405285 -0.0711709 0.295335
0.0185716 -0.0757548 0.29639
-0.00140499 -0.0732894 0.297587
0.000629804 -0.075281 0.297094
0.123109 -0.0161577 0.280214
0.0964273 -0.0306443 0.289309
-0.0024855 -0.0719744 0.29793
0.0569375 -0.0615387 0.294839
0.0305559 -0.0747629 0.29572
0.00216003 -0.0332628 0.304751
0.00457278 -0.0472605 0.30287
0.00257269 -0.0672291 0.299104
0.0485434 -0.0671543 0.295178
0.0205589 -0.0759913 0.296315
0.000206407 -0.0706624 0.298354
0.0365283 -0.0730221 0.295557
0.0782212 -0.0423443 0.293466
0.00581001 -0.00516459 0.306566
0.104607 -0.0268766 0.287046
0.00208218 -0.0352474 0.304659
0.0224743 -0.0761257 0.296251
0.00379143 -0.0109098 0.306488
0.0704769 -0.0493124 0.294408
0.000569561 -0.0691386 0.298828
0.00991953 0.0025682 0.306556
-0.00141094 -0.0752587 0.297359
0.0623923 -0.0571672 0.294836
0.084596 -0.0376914 0.292428
0.00307944 -0.0654273 0.29968
0.0645075 -0.0552399 0.294787
0.00787211 -0.000603266 0.30668
0.00573146 -0.0512273 0.30242
0.082571 -0.0391253 0.292859
0.0987877 -0.0296556 0.288924
0.0547111 -0.0633882 0.295136
0.00284685 -0.0432393 0.303731
0.00421998 -0.0611499 0.300629
0.00202177 -0.0372621 0.304568
0.0034266 -0.0639699 0.300096
0.0245814 -0.0761745 0.296235
0.0687464 -0.0511656 0.294656
0.0324427 -0.0746357 0.295881
-0.00322738 -0.0736099 0.297901
0.106779 -0.0260061 0.286524
0.0723102 -0.0475821 0.294424
0.00379938 -0.0626106 0.300407
0.00461471 -0.0592621 0.301104
0.114214 -0.022369 0.283996
0.116558 -0.0210578 0.283164
0.052479 -0.0650602 0.295348
0.120399 -0.0186384 0.281741
0.0423628 -0.070776 0.295679
0.0748542 -0.0453755 0.294238
-0.00194732 -0.0725741 0.298278
0.0383825 -0.0726382 0.295799
0.00572304 -0.0531438 0.302315
-0.00158236 -0.0710702 0.298666
0.0019521 -0.0392931 0.30449
0.0604675 -0.0590947 0.29515
0.00530257 -0.0554551 0.30194
0.046419 -0.0687383 0.295636
0.00863905 0.000827889 0.306932
0.0048731 -0.0574224 0.301612
0.0267643 -0.0760767 0.296296
0.00565005 -0.054272 0.302191
0.00458349 -0.0492634 0.303079
0.0657207 -0.0543383 0.295018
0.0925325 -0.0330428 0.29096
0.003048 -0.0452047 0.303747
-0.00334488 -0.0752903 0.297738
0.00413264 -0.0091426 0.306968
0.0341905 -0.0744112 0.296034
0.122618 -0.0172576 0.281087
0.0901831 -0.0344461 0.291624
0.0584257 -0.0609244 0.295364
0.00189998 -0.0191365 0.306593
0.00180802 -0.0212105 0.306458
0.00173558 -0.0232169 0.306313
-0.00457832 -0.0741105 0.298116
0.0838914 -0.0384997 0.293033
0.00166346 -0.0248435 0.306218
0.00189434 -0.0412916 0.304445
0.118807 -0.0199306 0.282636
0.0502773 -0.0667071 0.29567
0.000846702 -0.0677619 0.299691
0.00926725 0.00195501 0.307115
0.00267378 -0.0773048 0.297405
0.000622369 -0.0772807 0.297423
0.00150644 -0.0277525 0.306056
0.0561232 -0.0628146 0.295549
0.00532245 -0.00555875 0.307223
0.00204305 -0.017166 0.306838
0.00465677 -0.077246 0.297426
-0.00359276 -0.0730611 0.2985
0.100617 -0.0291477 0.288932
0.0287365 -0.0759647 0.296419
0.110529 -0.0245764 0.285734
0.00468678 -0.00724035 0.307265
0.0397249 -0.0724097 0.296084
0.0863773 -0.0368957 0.292687
0.0981638 -0.0303772 0.289711
0.00141007 -0.0293352 0.306001
0.00274633 -0.0133181 0.30711
0.112602 -0.0235633 0.285074
0.00661788 -0.0772476 0.297476
0.00724886 -0.00136083 0.307329
0.0354621 -0.0742078 0.296227
0.00163063 -0.0663911 0.300176
-0.00142078 -0.0772812 0.297565
-0.00129456 -0.0695145 0.299481
0.0947139 -0.0320619 0.290746
0.0104723 -0.0770239 0.297489
-0.00476145 -0.0754693 0.298041
0.00638128 -0.00313683 0.30741
0.0439637 -0.0704548 0.296079
0.00126692 -0.0313179 0.305906
-0.00412074 -0.0747197 0.298271
0.00858272 -0.0772526 0.297537
0.00224241 -0.0152485 0.307136
0.0018733 -0.0433299 0.304458
0.00458615 -0.0512809 0.303194
0.00212888 -0.0650912 0.300565
0.00320093 -0.0472876 0.303872
0.00116568 -0.0332699 0.305754
0.0540114 -0.0645628 0.295819
0.0478234 -0.0684202 0.296034
0.00315997 -0.011433 0.307354
0.115388 -0.022192 0.284261
0.103128 -0.028138 0.288423
0.0307282 -0.0757824 0.296528
0.0789181 -0.0423415 0.294279
-0.00337517 -0.0712968 0.29921
0.00255266 -0.0632368 0.301037
0.0186076 -0.0772349 0.297187
0.0166331 -0.0772175 0.29734
0.00106856 -0.0352916 0.305633
0.0206149 -0.077289 0.297091
0.124925 -0.0157463 0.280728
0.106461 -0.0266448 0.287446
0.0226186 -0.0772302 0.296976
-0.000513133 -0.0681972 0.300036
-0.00337887 -0.0772079 0.297829
0.0146612 -0.077237 0.297492
0.0128799 -0.0768632 0.297676
0.00458202 -0.0532705 0.30304
0.0368492 -0.0739283 0.296443
0.00278698 -0.0613738 0.301558
0.00321183 -0.0596949 0.301892
0.0411801 -0.0720376 0.296359
0.00436665 -0.0552112 0.302751
0.0617786 -0.0585154 0.295781
0.00400604 -0.0570167 0.302426
0.00364591 -0.0582819 0.302199
0.121958 -0.0183046 0.282015
0.00343383 -0.00989166 0.307643
0.0246239 -0.0771928 0.296973
-0.00563777 -0.0751602 0.298459
-0.00473374 -0.076829 0.298058
0.000916112 -0.0373213 0.305566
0.00206011 -0.0453172 0.304482
0.108539 -0.0258318 0.286935
0.0452069 -0.0701114 0.296373
0.0942602 -0.0325359 0.291304
0.102428 -0.0286581 0.288961
0.0327232 -0.0755582 0.296711
-0.00541356 -0.0732315 0.299055
0.118472 -0.020763 0.283497
0.0598246 -0.0604098 0.296006
0.111831 -0.0243638 0.28592
0.00325299 -0.0491871 0.30401
-0.0028592 -0.0700188 0.299917
0.00079162 -0.0393014 0.305489
0.0886767 -0.0358037 0.292791
0.0492428 -0.0680199 0.296396
0.124702 -0.0166269 0.281264
0.114595 -0.0230389 0.285093
0.000351384 -0.0669615 0.300798
0.00107027 -0.021323 0.307427
0.0553496 -0.0640985 0.296303
0.000589947 -0.0786944 0.297955
0.000688708 -0.041271 0.305402
0.0054463 -0.00424778 0.308108
-0.00139647 -0.0786508 0.297982
0.00455329 -0.0784306 0.298012
0.0968733 -0.0313666 0.29089
0.0266143 -0.0772092 0.297188
0.00118566 -0.0193749 0.307598
0.0026302 -0.078641 0.298
0.000937238 -0.0232907 0.307337
-0.00299114 -0.0784804 0.298052
0.00218662 -0.0472704 0.304583
0.12066 -0.0195814 0.28297
0.00640893 -0.0783639 0.298048
0.0427117 -0.0716629 0.29674
-0.00500961 -0.0718095 0.299732
0.00080609 -0.02531 0.307229
0.0909781 -0.0345505 0.292507
0.0387303 -0.0735792 0.296854
0.00134179 -0.0174139 0.307798
0.052983 -0.0658043 0.296496
-0.00405273 -0.0781389 0.298212
0.00323776 -0.051234 0.304003
0.00777865 -0.0783257 0.298095
0.0596644 -0.0607794 0.296335
0.104677 -0.0278612 0.288678
0.00755242 -0.0781932 0.29817
0.0346255 -0.0753114 0.297007
0.000644032 -0.0272782 0.307147
0.00148666 -0.0621034 0.302039
0.00371856 -0.00865226 0.308221
-0.00556386 -0.0773741 0.298448
0.0468181 -0.069585 0.296762
0.103826 -0.0283135 0.289013
0.116941 -0.0219852 0.284523
-0.00177773 -0.0686668 0.30068
0.00242352 -0.0591671 0.302721
0.0504881 -0.0675334 0.296715
0.000615316 -0.0432734 0.305413
0.00151634 -0.0158778 0.308068
0.0986366 -0.0307006 0.29067
0.000199952 -0.0791051 0.298167
0.00195116 -0.0609801 0.302395
0.0563142 -0.0635956 0.296566
0.00295888 -0.078936 0.298218
-0.00164155 -0.0790486 0.298205
0.000418479 -0.0292572 0.307124
0.000763168 -0.0654084 0.301504
0.0286063 -0.0771278 0.29735
0.00116142 -0.0636347 0.301885
0.00938206 -0.0782279 0.298302
0.0588293 -0.0616002 0.296555
0.000268078 -0.0312294 0.306965
0.000157333 -0.0332505 0.306772
0.00466412 -0.0788408 0.298297
0.108172 -0.0264476 0.287785
0.0182162 -0.0783112 0.297924
0.0153066 -0.078325 0.298093
0.123252 -0.018105 0.282342
0.00232627 -0.0493088 0.304648
0.00318517 -0.0534085 0.303952
0.0168404 -0.0783595 0.298041
-0.00361164 -0.0789013 0.298371
5.58333e-05 -0.0352473 0.306634
-0.00413325 -0.0705246 0.30046
0.0444558 -0.0710726 0.297058
0.110535 -0.0253884 0.287069
0.00261588 -0.0572884 0.3033
0.00170118 -0.0145808 0.308338
0.0137957 -0.0781787 0.298308
0.0405543 -0.0730846 0.297189
-0.00737752 -0.0752688 0.299316
-0.00697964 -0.0736635 0.299734
0.00292721 -0.0553736 0.303712
0.0544536 -0.0651386 0.296834
0.092848 -0.0337311 0.29252
-7.64311e-05 -0.0371654 0.306512
0.0079939 0.00070964 0.308656
0.0364588 -0.0749384 0.297302
0.0305256 -0.0769182 0.297475
0.0161342 -0.0785084 0.298212
0.0580012 -0.0624794 0.296798
0.00672151 -0.0787589 0.298528
0.000613727 -0.0452494 0.305491
0.0523531 -0.0666253 0.296999
0.0484563 -0.0690271 0.297119
0.0941883 -0.033107 0.29228
-0.000203197 -0.0391025 0.30639
0.00398002 -0.00715353 0.308809
-0.00114245 -0.067617 0.301429
0.116404 -0.022675 0.28526
0.0024094 -0.0512738 0.304654
0.11333 -0.0241994 0.286391
-0.00633547 -0.0723175 0.300302
0.0124982 -0.0777295 0.298767
0.00192103 -0.0130652 0.308693
0.00588367 -0.0028902 0.308932
0.0144587 -0.0785202 0.298521
-0.000312863 -0.0411214 0.30627
-0.00335631 -0.0693844 0.301185
-0.00737943 -0.0772602 0.2992
0.101328 -0.029795 0.29052
0.120414 -0.020422 0.283973
-0.00542112 -0.0789203 0.298845
0.0324514 -0.0766752 0.297722
0.00664856 -0.00132492 0.309082
0.122545 -0.019049 0.283198
0.106911 -0.0273214 0.288841
-0.000367461 -0.0429832 0.306203
0.00230034 -0.0532037 0.304611
0.000349247 -0.0631282 0.30272
0.00858347 -0.0787513 0.298922
0.00525031 -0.00388403 0.309181
0.000601989 -0.0472773 0.305618
0.0106657 -0.0781529 0.299036
0.0383052 -0.0745814 0.297718
0.00120838 -0.0576396 0.303881
0.00459502 -0.00535555 0.309222
0.000579753 -0.0612656 0.30318
0.0559173 -0.0644685 0.297312
-6.78772e-05 -0.0648762 0.302442
0.0422974 -0.0726528 0.297685
-0.00551819 -0.0711085 0.300995
0.112649 -0.0247974 0.287028
0.0499831 -0.0684896 0.297502
0.00227711 -0.0112349 0.309159
0.118663 -0.021706 0.284888
0.00294987 -0.00931172 0.309232
0.000786713 -0.0593856 0.303654
0.0463903 -0.0705935 0.297668
0.00203879 -0.0551006 0.304474
-0.00832566 -0.0743723 0.300247
-0.000192167 -0.0251821 0.308452
-0.000369836 -0.0283047 0.308183
-7.62771e-05 -0.0232625 0.30862
-0.000665759 -0.0313446 0.307905
-0.000314949 -0.0270504 0.308313
0.00174996 -0.0566072 0.304282
-0.00868197 -0.0756901 0.299987
5.80298e-05 -0.0212199 0.308789
0.0341075 -0.0764592 0.297993
-0.000553142 -0.0297651 0.308109
0.000970953 -0.0153424 0.309194
-0.000332752 -0.0455677 0.306206
-0.000850237 -0.0333739 0.307774
-0.00251921 -0.0682517 0.301971
0.000634351 -0.0492992 0.305663
-0.00766639 -0.0730117 0.30084
0.000491998 -0.01728 0.309187
-0.00101101 -0.0353272 0.307649
0.114823 -0.0239633 0.286602
0.0290878 -0.0780497 0.298276
0.000174218 -0.0192048 0.309091
-0.00115104 -0.0373016 0.307455
0.00736882 0.000233303 0.309631
0.00339874 -0.0076129 0.309614
0.102916 -0.0293788 0.290665
0.108614 -0.0268958 0.288886
-0.00477273 -0.0700405 0.301746
0.110362 -0.0261359 0.288305
-0.000300489 -0.047357 0.306183
0.123851 -0.0187795 0.283407
-0.00873277 -0.0772439 0.299947
0.0104631 -0.0785928 0.299548
-0.00136211 -0.0393065 0.307358
0.00130117 -0.0134757 0.309596
-0.00139001 -0.0412801 0.307143
0.000574907 -0.0512332 0.305649
0.100405 -0.030576 0.291604
-0.00732251 -0.0789643 0.29965
0.000424589 -0.0571888 0.30469
0.0307454 -0.0778758 0.298497
-0.00692788 -0.0718398 0.301502
0.124809 -0.0179048 0.283224
-0.00138971 -0.0432759 0.306989
0.1045 -0.0287907 0.29048
0.0125628 -0.0786572 0.299653
-0.000211243 -0.0488713 0.306202
-0.000860395 -0.0614821 0.30392
0.000581517 -0.0532483 0.305472
1.13001e-06 -0.0589576 0.30443
0.0472382 -0.0705457 0.298252
0.000567311 -0.0552614 0.305144
0.118326 -0.0223978 0.285829
0.114233 -0.0245388 0.287328
-0.00123658 -0.0633553 0.303638
0.120534 -0.0211257 0.285023
-0.00135208 -0.0652645 0.30324
-0.00170247 -0.0669622 0.302881
0.0479667 -0.0701695 0.298334
0.0451618 -0.0717088 0.298406
0.109982 -0.0264803 0.288852
-0.000365109 -0.0606939 0.304243
-0.00139044 -0.0452639 0.306929
0.0367696 -0.0759293 0.298591
0.0409444 -0.0739687 0.298549
0.00152616 -0.0120259 0.310063
0.105911 -0.028364 0.290284
-0.00855149 -0.078472 0.300109
0.116534 -0.0234535 0.286655
-0.00955663 -0.0751726 0.30093
0.0425856 -0.0732214 0.298601
0.0326088 -0.0776131 0.298791
-0.00238208 -0.0622234 0.304132
0.0440156 -0.0724873 0.298634
-0.00118459 -0.0273062 0.309265
0.0343633 -0.0770395 0.298807
-0.00104401 -0.0253017 0.309458
-0.00250006 -0.0633927 0.303958
0.038638 -0.0752326 0.298772
-0.000908051 -0.0233364 0.309636
-0.000708201 -0.021392 0.309779
-0.00904453 -0.0736571 0.301521
-0.0011482 -0.0521646 0.306109
-0.00139051 -0.0292693 0.309147
-0.00138672 -0.0472655 0.306918
-0.00177681 -0.0331982 0.308793
-0.00161011 -0.0312488 0.308998
-0.0097489 -0.0772639 0.300667
0.00374612 -0.0064194 0.310505
-0.00208489 -0.0371863 0.308364
-0.00195001 -0.0352072 0.308616
-0.000586666 -0.0197278 0.309999
-0.002194 -0.0384986 0.308226
0.040261 -0.0745343 0.298869
-0.00137432 -0.0592761 0.304941
-0.00163573 -0.0611691 0.304574
0.122978 -0.0199352 0.284588
-0.00602512 -0.0705135 0.302504
-0.00375315 -0.068712 0.302959
-0.000909916 -0.0535864 0.306069
0.0121089 -0.0791693 0.300257
-0.00192699 -0.0629346 0.304327
-0.00813644 -0.0795925 0.300329
-0.00138596 -0.0492894 0.306884
0.00176669 -0.0107142 0.31064
-0.00245193 -0.041531 0.308033
0.00399814 -0.00523078 0.310761
-0.00135379 -0.057294 0.30551
0.0060397 -0.00148324 0.310782
0.0361967 -0.0765482 0.299097
-0.00116033 -0.0553704 0.305885
-0.00281082 -0.0653737 0.303932
0.0109925 -0.0790379 0.300489
0.119458 -0.0221969 0.286193
-0.000256882 -0.0170074 0.310484
-0.00138356 -0.0512835 0.306709
-0.00815238 -0.072346 0.302342
-0.00259265 -0.043306 0.307944
-0.0019172 -0.0645712 0.304228
-0.00283837 -0.0675934 0.303569
0.00490334 -0.00324712 0.310976
-0.00154787 -0.0531822 0.306543
-0.00266516 -0.0558204 0.306093
-0.0052418 -0.069611 0.30323
0.122367 -0.0206924 0.285346
0.118467 -0.0229415 0.286827
-0.00273059 -0.0452945 0.307877
0.112778 -0.0257421 0.288905
-0.00339849 -0.0632534 0.304719
-0.00332372 -0.0612633 0.305148
5.71744e-05 -0.0151545 0.310892
-0.0029653 -0.0575286 0.305896
-0.0032431 -0.0592832 0.305575
0.00288617 -0.00733585 0.311194
0.00214761 -0.00916108 0.311167
-0.0108018 -0.0755553 0.301839
-0.00946365 -0.0792811 0.300959
-0.00187511 -0.0550802 0.306466
-0.00216399 -0.0565158 0.306204
0.000555515 -0.0132992 0.31114
-0.0034476 -0.0652527 0.3045
-0.00735123 -0.0712168 0.303127
-0.00300662 -0.0473807 0.307842
0.0033777 -0.00588271 0.311444
-0.00269833 -0.0333934 0.309742
0.00113122 -0.0114474 0.311338
-0.00252939 -0.0314158 0.309958
-0.00530178 -0.0579781 0.306076
-0.00242899 -0.0302232 0.310121
-0.0110313 -0.0772842 0.301663
-0.00293884 -0.0353059 0.309581
-0.00211914 -0.0270889 0.310416
-0.0022718 -0.0288123 0.310262
-0.00514347 -0.0595228 0.305865
-0.00199105 -0.0251899 0.310626
-0.00317585 -0.0373328 0.309397
0.120714 -0.0219762 0.286489
0.0821233 -0.0417754 0.297735
-0.00319193 -0.0493404 0.30772
-0.00333699 -0.0392868 0.309173
0.124427 -0.0197124 0.285101
-0.00182188 -0.0232065 0.310832
-0.00345977 -0.0412308 0.308961
-0.00334232 -0.055252 0.306778
0.115874 -0.0245715 0.288357
-0.00529642 -0.0633035 0.305197
0.0329239 -0.0783544 0.299952
-0.00531586 -0.0613175 0.305625
0.114756 -0.0250872 0.288785
-0.00359471 -0.0571303 0.306466
-0.00334559 -0.0532838 0.307166
-0.00952868 -0.072997 0.302961
-0.0012528 -0.0192735 0.311188
-0.00360881 -0.0432346 0.308758
-0.00335524 -0.0512745 0.30754
