ply
format ascii 1.0
comment Created by Open3D
element vertex 1626
property double x
property double y
property double z
end_header
0.0198343 0.0236201 0.392534
0.11986 0.0198037 0.398294
0.0382169 0.0101172 0.394395
0.0145725 0.0203795 0.392444
0.121767 0.0236505 0.398152
0.122937 0.0118786 0.398955
0.0230144 0.00475987 0.393886
0.0255252 0.0216213 0.392964
0.12394 0.0139315 0.398877
-0.0512825 0.0187929 0.3889
0.119958 0.0188798 0.398345
0.124792 0.00263307 0.39963
0.0476452 0.00748824 0.395064
-0.0538287 0.0116884 0.3892
0.123882 0.00885183 0.399185
-0.0124394 0.0379197 0.389836
-0.0287324 -0.0253479 0.392904
0.121983 0.00694951 0.399195
0.120305 0.0180206 0.398407
0.121906 0.0108507 0.398945
0.0235568 0.00462492 0.393907
-0.000389033 0.0299741 0.390995
0.0385644 0.0196379 0.393793
-0.0487487 -0.0139461 0.391078
-0.0492652 0.0219929 0.388793
0.0271059 0.0316992 0.392399
0.121956 0.00600413 0.399243
0.00970971 0.0219747 0.392044
0.0125555 0.0155329 0.392602
0.038558 0.0204461 0.393727
0.0173962 0.0248177 0.392284
0.118992 0.0208801 0.398135
0.123021 0.0176168 0.398562
0.122885 0.0139283 0.398785
-0.0513108 0.0147935 0.389115
0.0125382 0.0239957 0.392061
0.0671817 0.024585 0.395038
0.012573 0.00664168 0.393149
0.121838 0.0139261 0.398721
0.122865 0.00873988 0.399102
0.0476452 0.00687759 0.395064
0.0198274 0.024825 0.392398
0.122807 0.00694956 0.399202
0.120793 0.0209526 0.398212
0.122098 0.0197016 0.398363
0.0230622 0.0276555 0.392398
0.0329895 -0.00614975 0.395064
0.123944 0.0129043 0.398888
0.00243315 0.027174 0.391286
0.122937 0.0108509 0.398953
-0.0481442 -0.0141476 0.391078
0.0513091 0.00972732 0.395064
0.0319799 0.0309115 0.392666
-0.0528981 0.0147889 0.388993
-0.0244392 0.039443 0.389013
0.1219 0.0208863 0.398253
-0.047048 0.0247901 0.38868
-0.053926 0.0107855 0.389179
0.0271052 0.0308897 0.392389
0.0162446 -0.000651693 0.393766
0.0169855 0.0260206 0.392135
0.120228 0.020881 0.398152
0.0439813 0.0030101 0.395064
0.0161882 0.0209836 0.392398
0.0279145 0.0312947 0.392398
0.122938 0.0208884 0.398292
0.012961 0.0143203 0.392633
-0.017629 0.0434631 0.389115
0.123851 0.00633335 0.399251
-0.0681517 -0.00104497 0.389115
0.0226579 0.0264425 0.392398
0.0154055 0.00947547 0.393061
-0.0347585 -0.0236962 0.392372
0.0476452 0.00585983 0.395064
0.125588 0.00304421 0.399542
0.120886 0.0188363 0.398292
0.0521234 0.00972732 0.395064
-0.0264504 0.0354436 0.389115
0.00970497 0.0235791 0.391852
0.0329895 -0.00716751 0.395064
-0.0543353 0.0087816 0.389238
0.124056 0.0165912 0.398588
0.120096 0.0161727 0.398396
0.122048 0.0177125 0.398403
0.122885 0.0229307 0.398122
0.0117555 0.00825711 0.392907
0.121816 0.0188374 0.398315
-0.0541255 0.00978279 0.389171
0.12769 0.00222153 0.399677
0.125343 0.0147493 0.398761
0.040923 0.0313476 0.393061
-0.0545717 0.00417174 0.389494
0.0154055 0.00886791 0.393061
-0.0141783 -0.0241698 0.3935
0.0321255 0.00137954 0.394453
0.123739 0.00698993 0.399155
0.00605824 0.0327982 0.39104
0.120937 0.0155594 0.398461
0.00767081 0.0336075 0.391078
0.00243038 0.0327816 0.39084
-0.0545825 0.00276756 0.389571
-0.0439582 -0.0183981 0.391483
0.133879 0.026442 0.398485
-0.0473382 -0.0149536 0.391078
0.0431512 0.00341594 0.394919
-0.0132354 0.0383 0.389619
0.123831 0.0248224 0.398029
0.0736999 0.0278435 0.395064
0.125691 0.0178222 0.398562
0.0275102 0.0296773 0.392398
0.12387 0.0147452 0.398651
0.0476452 0.00484206 0.395064
0.122746 0.025856 0.39789
0.0234818 0.0220088 0.392652
0.0198274 0.0228032 0.392398
-0.00119334 0.0345637 0.390499
0.0513091 0.00789535 0.395064
0.122889 0.0219059 0.398135
0.125944 0.0257303 0.398064
0.120807 0.0180822 0.398257
-0.0542054 -0.000243422 0.389746
0.0708501 0.0249937 0.395064
0.122874 0.00772769 0.399018
0.123941 0.0108488 0.39888
0.0357209 0.0147672 0.393761
-0.053821 -0.00205134 0.389871
0.0161732 0.025004 0.392034
-0.0399599 -0.0212411 0.391835
0.123917 0.011874 0.398801
0.122851 0.0235395 0.39801
0.0218492 0.0240163 0.392398
0.0060629 0.0269761 0.391341
0.121802 0.00221931 0.399278
0.122984 0.0165851 0.398441
0.124863 0.0165892 0.398541
0.122942 0.0186317 0.398306
0.129902 0.0256057 0.398251
-0.0423549 -0.0196131 0.391579
0.124956 0.0118752 0.398837
0.126489 0.0186402 0.398488
0.122944 0.0182215 0.398312
0.038573 0.0145688 0.393881
-0.0391547 -0.0216462 0.391858
-0.0188359 0.0386595 0.389197
0.0024305 0.0307694 0.390859
0.0235438 0.00421668 0.393689
0.0226579 0.0240163 0.392398
0.0190212 0.0199754 0.39245
0.13119 0.00345707 0.399674
-0.0543337 0.0067759 0.389226
-0.0512535 0.0181814 0.388681
0.124937 0.0157001 0.398559
0.124901 0.00978124 0.398926
0.122904 0.0198567 0.398182
0.124247 0.0187693 0.398324
0.124783 0.0198619 0.398284
0.124981 0.00290559 0.399355
0.124867 0.0129501 0.398717
0.125719 0.0147452 0.398651
0.123885 0.0229258 0.398037
0.128895 0.00263276 0.399583
0.125991 0.0248882 0.398027
0.125875 0.0128419 0.398773
0.125942 0.0139255 0.398706
-0.0534262 -0.00385977 0.389922
0.124879 0.00879573 0.398968
0.128045 0.0030439 0.399501
0.123732 0.019858 0.398206
0.125896 0.00986416 0.398952
0.040923 0.0289174 0.393061
0.0736999 0.0258079 0.395064
0.0153821 0.0159319 0.392464
0.122761 0.0159669 0.398385
0.123801 0.016174 0.398428
0.130978 0.0029078 0.399656
0.123841 0.00780862 0.398954
-0.0484268 0.0229768 0.388496
-0.021627 0.040033 0.388903
0.123716 0.016856 0.398375
-0.00239203 0.0534874 0.389115
0.1259 0.0155637 0.398572
0.00605982 0.0285746 0.391142
0.0389451 0.00990722 0.394127
0.0320264 0.0179894 0.393237
0.120726 0.00221843 0.39912
0.0385758 0.0129462 0.39391
0.0242753 0.0244207 0.392398
0.140938 0.0264567 0.398707
0.0237362 0.0238815 0.392398
0.0299869 0.0187914 0.393061
0.0388886 0.0117309 0.393995
0.123969 0.0178108 0.398307
0.12482 0.0169941 0.398405
0.0154055 0.00583011 0.393061
0.127332 0.0165899 0.398557
-0.028305 -0.0253277 0.392592
-0.000388668 0.0305497 0.390628
0.0736999 0.0249937 0.395064
0.126949 0.014745 0.398645
0.126798 0.0118745 0.398815
-0.0543118 0.00787583 0.389069
0.03902 0.00666105 0.394296
0.0439813 -0.0012645 0.395064
0.0198274 0.0199728 0.392398
0.124787 0.00776755 0.398956
0.0275005 0.0288586 0.392261
0.124269 0.00221927 0.399271
0.125832 0.00776867 0.399009
0.0117601 0.00218475 0.393061
0.13306 0.0026337 0.399725
0.123896 0.0208769 0.398073
-0.0136193 0.0426611 0.389115
0.126137 0.0235405 0.398027
0.0773638 0.0278435 0.395064
0.030797 0.0187914 0.393061
0.126874 0.00776946 0.399054
0.00242939 0.0317616 0.390681
0.124999 0.0178114 0.39832
0.0145508 0.0235796 0.39186
0.0202646 0.00987984 0.393034
0.12704 0.00982245 0.398929
0.124866 0.0139201 0.398551
0.127021 0.0158708 0.398547
-0.042935 -0.0189968 0.39135
0.058637 0.0111522 0.395064
0.01253 0.0223651 0.391805
0.124921 0.0108447 0.398726
0.0299869 0.0175763 0.393061
0.126936 0.0247666 0.397958
0.127825 0.0118745 0.398814
0.0190084 0.0217807 0.392186
0.00323785 0.0255475 0.391078
0.124631 0.014738 0.398455
0.0275102 0.0258359 0.392398
0.125925 0.022924 0.398004
0.134234 0.0251996 0.398319
-0.0545186 0.00577158 0.389115
0.127748 0.0153584 0.398572
-0.0461145 -0.0161574 0.390953
0.0206687 0.00967676 0.393018
0.128565 0.0161793 0.398559
0.12584 0.00879348 0.398872
-0.0375353 -0.0224512 0.391814
0.0773638 0.0268257 0.395064
0.124918 0.0208762 0.398061
-0.0488135 0.02217 0.388388
0.0678252 0.0219956 0.394835
0.126936 0.013922 0.398603
0.126876 0.0126509 0.398673
0.030797 0.0175763 0.393061
0.00323785 0.024943 0.391078
0.124665 0.015897 0.398346
0.12604 0.00290482 0.399234
0.124051 0.0257065 0.397694
0.127841 0.025686 0.397904
0.0299869 0.0167662 0.393061
-0.0451173 -0.0171685 0.39104
0.0283425 0.0205965 0.392726
-0.0379318 -0.0220433 0.39174
0.124867 0.0229179 0.397898
0.126866 0.0238095 0.397953
-0.036731 -0.022857 0.391848
0.0255889 -0.00146389 0.393946
0.00163144 0.00177681 0.39242
0.0226565 0.0209823 0.392373
0.030797 0.0171712 0.393061
0.127163 0.00221951 0.399314
0.125921 0.0118693 0.39864
0.129647 0.0237499 0.398099
0.123839 0.0218924 0.397891
-0.0120154 0.0422602 0.389115
0.0773638 0.0260115 0.395064
0.0390617 0.0108757 0.393897
-0.0545186 0.00476915 0.389115
0.0348724 0.0159676 0.393344
0.128925 0.024768 0.39798
-0.0355256 -0.0232647 0.391915
0.124829 0.0139159 0.398431
0.0145416 0.0255824 0.391612
0.135095 0.00345689 0.399653
0.124877 0.0218947 0.397932
0.125062 0.00221874 0.399175
-0.053182 0.00577158 0.389115
0.0736999 0.0225511 0.395064
0.0254884 0.0226011 0.392398
0.126797 0.0156811 0.398423
0.130852 0.0255908 0.39802
0.124933 0.0188278 0.398111
0.00242953 0.0291465 0.390703
-0.0443157 -0.0179761 0.391078
0.125903 0.0199038 0.398097
0.0190008 0.0225797 0.392029
0.125915 0.0218969 0.397971
0.128797 0.0137179 0.398643
0.0274983 0.0268352 0.392228
0.126058 0.0147369 0.398426
0.0340399 0.0187928 0.393091
0.12585 0.0209154 0.398024
0.126853 0.0208365 0.398085
0.131054 0.0157715 0.398634
0.125828 0.0178068 0.398217
0.125926 0.0108427 0.398657
0.126804 0.00879259 0.398833
0.0736999 0.022144 0.395064
0.0642935 0.0180609 0.394801
0.126761 0.010844 0.398699
0.127865 0.0148085 0.398511
0.127622 0.0198566 0.398181
0.00242921 0.0297464 0.390651
0.127686 0.0109038 0.398745
0.124738 0.0248875 0.397705
-0.0116144 0.0418592 0.389115
0.0393926 0.00949713 0.393959
0.126768 0.0070135 0.398937
0.00889557 0.0175186 0.391772
0.127882 0.0128958 0.398626
0.0463203 0.0119397 0.394183
0.00242758 0.0337495 0.390391
0.0117601 -0.000650526 0.393061
0.125814 0.0161688 0.398301
0.111723 0.0230758 0.397088
-0.0533157 0.00496963 0.389115
0.125758 0.0188284 0.398125
0.0235234 0.00502369 0.393348
0.129955 0.0118327 0.398792
0.128828 0.0116668 0.398738
0.127782 0.00867589 0.398863
0.0258927 0.0219945 0.392398
0.126061 0.00701225 0.398865
-0.0545186 0.00356623 0.389115
0.125794 0.0167818 0.398238
0.127876 0.024709 0.397854
0.127727 0.014124 0.398509
0.126878 0.0188712 0.398163
0.132916 0.0257984 0.398059
0.126815 0.0178071 0.398223
0.125149 0.00714807 0.398799
0.126894 0.0197941 0.398102
0.128921 0.00887622 0.398898
0.129905 0.0138821 0.398639
0.0275081 0.0236102 0.392368
0.126745 0.0168238 0.398261
0.126887 0.0139166 0.398448
-0.0361959 0.0325662 0.388274
0.0449614 0.0293146 0.392956
-0.0516132 0.0173666 0.388373
0.023588 0.0227904 0.392178
-0.00119191 0.0351253 0.390033
0.031857 0.019859 0.392814
0.0311494 0.0258359 0.392398
0.0736999 0.0207191 0.395064
0.131083 0.0128989 0.398721
0.126837 0.0228475 0.397863
0.128824 0.0108445 0.398725
-0.0533157 0.00376671 0.389115
-0.00119284 0.0301247 0.390336
-0.0541176 0.00296477 0.389115
-0.0524214 0.0153679 0.388431
0.129827 0.0127597 0.398652
0.1284 0.0210807 0.398048
-0.0499974 0.0201621 0.388257
0.126857 0.0147342 0.398354
0.129871 0.0248209 0.397887
0.0210181 0.0231829 0.391981
0.0393921 0.00787315 0.393954
0.0773638 0.0235689 0.395064
0.13063 0.014127 0.398593
0.125778 0.00591579 0.398837
0.111723 0.021439 0.397088
0.127949 0.0156234 0.398348
0.124964 0.025561 0.397556
0.0422215 0.0119293 0.393839
0.128196 0.0238027 0.397838
0.121628 0.0255488 0.397365
0.00889342 0.0169091 0.391678
0.133581 0.0257266 0.398006
0.129734 0.016582 0.398366
0.0736999 0.0199049 0.395064
-0.037188 0.0319588 0.388186
0.0650948 0.0176507 0.394726
0.129731 0.0109031 0.398716
0.138812 0.00345716 0.399684
0.135053 0.0026324 0.399528
-0.0532331 0.0125686 0.388513
0.136211 0.0264164 0.398099
0.0328222 0.0157536 0.393061
0.0311494 0.024825 0.392398
-0.0545186 0.00176185 0.389115
-0.00119213 0.0329209 0.390104
0.128057 0.00988483 0.398681
0.0173698 0.0239728 0.391688
0.12989 0.00879283 0.398843
0.128953 0.0237353 0.397854
0.0158105 0.000564594 0.393061
0.0145477 0.0199411 0.391776
0.135883 0.0258422 0.398102
0.127036 0.0255658 0.39763
0.130809 0.0147402 0.398515
0.139032 0.0120896 0.399133
0.130916 0.00961476 0.398839
0.12903 0.0198525 0.398092
0.00162358 0.0283285 0.390527
0.128801 0.0167422 0.398272
0.0422223 0.0111178 0.393846
0.126899 0.0218898 0.397843
0.0671862 0.0135948 0.395064
-0.010417 0.0368665 0.38932
0.128935 0.0141213 0.398432
0.128812 0.00981654 0.398687
0.0336323 0.0157536 0.393061
-0.0532231 0.0129665 0.388439
0.128902 0.0255702 0.397699
0.0328222 0.0149435 0.393061
0.0773638 0.022144 0.395064
0.127916 0.0227083 0.397819
0.0157295 -0.000164478 0.393061
0.131 0.0249648 0.397846
0.130405 0.00345264 0.399162
0.12791 0.0188661 0.398056
0.126852 0.013297 0.398339
0.0671862 0.0129841 0.395064
0.129012 0.0219756 0.397912
0.131265 0.00221929 0.399275
0.0137252 0.0251619 0.391348
0.0283189 0.0211858 0.392398
-0.0391744 0.0309482 0.388053
0.0336323 0.015146 0.393061
0.127888 0.0168467 0.398156
-0.00840663 0.0410573 0.389115
-0.0210481 -0.0330537 0.393061
-0.0541176 0.000759412 0.389115
-0.00119205 0.0319132 0.390077
0.0274754 0.0280244 0.391902
0.128309 0.00283475 0.399042
0.129881 0.0178054 0.398187
0.129859 0.0188281 0.398119
0.0154055 -0.00125809 0.393061
0.128684 0.0129712 0.398418
0.0311494 0.0230054 0.392398
-0.0104157 0.0362601 0.389271
0.128933 0.0229119 0.397794
-0.00480535 0.0338925 0.389722
0.0117008 0.0267565 0.391078
0.127513 0.0208646 0.397839
0.0773638 0.0209227 0.395064
-0.0104133 0.037455 0.389182
0.129921 0.0153483 0.398311
0.131819 0.00885098 0.398819
0.130893 0.00879133 0.398771
0.131644 0.0128935 0.398555
-0.00480576 0.0330921 0.389755
0.038125 0.0119174 0.393446
0.0258809 0.0207718 0.392215
0.1248 0.0257531 0.39736
0.0283189 0.0199728 0.392398
0.129954 0.00345161 0.399042
0.128817 0.0179174 0.39807
0.131412 0.0137122 0.398476
0.13189 0.0256761 0.39775
0.0671862 0.0115593 0.395064
0.128877 0.0148844 0.398255
0.130802 0.00276681 0.399118
0.128654 0.0155491 0.398198
0.12786 0.0177389 0.398008
-0.00119146 0.0337057 0.389884
0.131108 0.00796999 0.398799
0.12792 0.0138414 0.398255
0.0156755 -0.00213567 0.393061
0.131025 0.0158403 0.398298
0.131439 0.0120722 0.398557
0.0190508 0.000767114 0.393061
0.0671862 0.0111522 0.395064
0.129811 0.00981441 0.398603
0.0274913 0.0229898 0.392129
0.128872 0.0187808 0.397987
0.124496 0.0247302 0.397371
0.138753 0.00304399 0.399513
-0.0537166 -0.000643995 0.389115
0.131014 0.0120708 0.398512
0.0650697 0.0168307 0.394573
0.128035 0.014523 0.398189
0.129866 0.0228692 0.397765
0.134963 0.0034535 0.399261
0.128937 0.0112475 0.39844
0.131893 0.00985762 0.398686
0.1297 0.0147308 0.39826
0.0385313 0.0111068 0.393455
0.130867 0.0188255 0.398065
0.0190508 0.000159554 0.393061
-0.00119186 0.0309037 0.390016
0.132741 0.00920212 0.398768
0.0137146 0.0275602 0.391045
0.129104 0.00293686 0.398956
0.127876 0.021823 0.397695
0.0157295 -0.00299976 0.393061
0.12987 0.0195716 0.397945
-0.0537166 -0.00124546 0.389115
0.130902 0.0167791 0.398174
0.130962 0.0139133 0.398355
0.0319714 0.019172 0.392561
0.0356453 0.0165581 0.392927
0.137811 0.0257936 0.397982
0.131979 0.024956 0.397707
-0.0540278 0.00856416 0.388469
0.129793 0.0027656 0.398969
0.0254228 0.0316175 0.391388
0.031106 0.0292321 0.391851
0.131936 0.00287607 0.399067
0.13213 0.0108406 0.398577
0.135084 0.0257818 0.3978
0.132006 0.0132994 0.39841
0.130141 0.0124766 0.398356
0.128478 0.0120641 0.398289
-0.0471451 0.0241365 0.387832
0.130217 0.0220214 0.397751
-0.0399504 0.0305302 0.387823
0.130893 0.0218868 0.397789
0.130806 0.01785 0.398036
0.0650402 0.0180423 0.394394
0.131002 0.0208654 0.397854
0.131984 0.0139128 0.398341
0.130754 0.0227028 0.397721
0.0217757 0.0323985 0.391078
0.129349 0.00960524 0.398444
0.130363 0.0210665 0.397781
0.132033 0.00381057 0.398955
0.130908 0.0149334 0.398191
0.133029 0.00365697 0.399014
0.0649242 0.028558 0.393691
0.0189491 0.0315832 0.390963
0.13186 0.0158902 0.398175
0.130564 0.0112461 0.398393
-0.0533157 -0.00264886 0.389115
0.135753 0.00345267 0.399165
0.141011 0.012083 0.398914
-0.0412718 -0.0201823 0.390876
0.0137039 0.0303572 0.390739
0.0356396 0.0157457 0.392865
-0.0515605 0.0169491 0.387976
0.0217757 0.0319955 0.391078
0.130389 0.0194307 0.397859
0.130863 0.0117585 0.398365
0.135141 0.0120727 0.398573
-0.0140061 0.0378113 0.388723
0.134913 0.00304094 0.399113
0.0100751 0.0297387 0.390549
0.111723 0.014892 0.397088
0.0327678 0.0199733 0.39241
-0.0533157 -0.00325032 0.389115
0.133023 0.0227054 0.397768
0.136923 0.0258491 0.397785
0.130725 0.0127813 0.398258
-0.00480145 0.0346675 0.389405
0.133759 0.0109764 0.398535
0.0154055 -0.00591605 0.393061
0.133164 0.015959 0.398187
-0.00198725 0.0533851 0.388371
0.135089 0.0137102 0.398419
0.133014 0.00303985 0.39897
0.138586 0.0257849 0.39785
0.135149 0.0108411 0.398596
0.0125068 0.0227266 0.391078
0.0225817 0.0315925 0.391078
0.136118 0.00468507 0.39903
0.134343 0.00919923 0.398643
0.134012 0.0180735 0.398066
0.131926 0.0145222 0.398167
0.0270374 0.0300057 0.391407
0.134627 0.0249531 0.397661
0.133599 0.0241331 0.397652
0.137099 0.0263899 0.3977
0.131788 0.0208601 0.397752
0.035634 0.0151361 0.392803
-0.00399592 0.0390524 0.389115
0.137964 0.0249636 0.397831
0.139032 0.00509758 0.399133
-0.0453256 0.0259229 0.387652
0.0222486 0.0110745 0.392312
0.129219 0.00365394 0.398678
0.135898 0.0141196 0.398385
-0.0447244 0.0265209 0.387635
-0.0443246 0.0269201 0.387631
0.134669 0.0176985 0.398088
0.13086 0.024938 0.397421
0.131614 0.0188151 0.397844
0.133845 0.0218859 0.397774
0.00645167 0.0263121 0.390464
-0.0529147 -0.00445324 0.389115
0.131659 0.0165659 0.39798
0.00282825 0.0276992 0.390168
0.0173436 0.0255488 0.391098
0.132535 0.0145214 0.398147
0.137163 0.0227121 0.397885
0.134795 0.0130241 0.39836
0.132214 0.0229686 0.397593
0.133819 0.0227014 0.397697
0.0682248 0.0237089 0.394009
-0.0394599 -0.0211894 0.390881
0.13298 0.0129863 0.398252
0.0100749 0.0277258 0.39054
0.132823 0.0104252 0.398398
0.0153277 0.023734 0.391078
0.131622 0.0177911 0.397869
0.13689 0.0251598 0.397689
-0.0540066 0.00656004 0.388317
0.131952 0.0118575 0.398244
0.135394 0.0169815 0.398109
0.0364585 0.0119028 0.392964
0.13364 0.0129661 0.39826
0.134055 0.0208621 0.397788
0.13383 0.0118603 0.39834
0.12777 0.0220682 0.397364
0.12854 0.0251297 0.397214
0.13331 0.0165672 0.398012
0.132621 0.0194274 0.397791
0.0311261 0.020766 0.392105
0.135955 0.0100186 0.398553
0.13198 0.0198919 0.397711
0.131885 0.024324 0.397425
-0.0525137 -0.00545568 0.389115
0.0117008 0.0197041 0.391078
0.133118 0.0251438 0.397437
0.0161337 0.0235325 0.391078
0.137781 0.00293795 0.399082
0.133055 0.018201 0.397862
0.135742 0.015671 0.398169
0.132933 0.0219594 0.397618
0.0682211 0.0228956 0.393988
0.13888 0.00372615 0.399088
0.132834 0.0138026 0.398121
-0.0513108 -0.00465373 0.389115
-0.0112026 0.0366111 0.388738
0.139032 0.00304109 0.399133
0.131651 0.0218733 0.397544
0.133708 0.0167707 0.397975
0.00604866 0.0247 0.390422
0.0125068 0.0199056 0.391078
0.132202 0.00878263 0.398379
0.135165 0.0167735 0.39804
0.136104 0.012067 0.398387
0.133833 0.0106702 0.398346
0.131436 0.0251355 0.397306
-0.00840099 0.0368223 0.388854
0.0206214 0.0102609 0.392118
0.0274407 0.0275857 0.391407
-0.0523132 -0.00605714 0.389115
0.133945 0.019836 0.397766
0.135507 0.0104263 0.398441
0.00564634 0.0238954 0.390422
0.0153277 0.0219206 0.391078
0.13302 0.00919296 0.398371
0.131755 0.00960106 0.398271
0.134608 0.0226962 0.397606
0.134752 0.0255527 0.397426
0.135654 0.00303912 0.398873
0.132579 0.00980644 0.398279
0.134511 0.02198 0.397622
0.132804 0.0188094 0.397725
0.02226 0.00460855 0.392512
0.133686 0.00358579 0.398725
0.135633 0.023106 0.397607
0.134143 0.014723 0.39805
0.133742 0.0136985 0.398078
0.0137019 0.0259242 0.390684
0.133538 0.023098 0.397469
-0.0519791 -0.00705957 0.389115
0.00604866 0.0230907 0.390422
0.135933 0.008785 0.398487
0.133525 0.0235052 0.397431
0.0137083 0.0227142 0.390866
0.134962 0.0149279 0.398046
0.0218861 -0.00510597 0.393061
0.135768 0.00987797 0.398405
0.133837 0.0186056 0.397748
-0.0418297 -0.0195563 0.390443
0.0100724 0.0261095 0.390442
0.135879 0.0148475 0.39809
0.134735 0.02514 0.397377
0.133748 0.00303784 0.398706
0.0181487 0.022928 0.391078
0.137853 0.00358726 0.398894
0.1368 0.0259622 0.397427
0.137158 0.0221536 0.397672
0.138081 0.0149325 0.398169
0.0189547 0.0231295 0.391078
0.135973 0.0251417 0.397404
-0.0517118 -0.00786152 0.389115
0.00646182 0.0118456 0.391078
0.136953 0.0119266 0.398269
0.13594 0.0263638 0.397307
0.13848 0.0247411 0.397547
0.135167 0.0235059 0.397441
0.134436 0.0186035 0.397702
0.137805 0.0111083 0.398358
0.134202 0.0100103 0.398223
0.136219 0.0132898 0.398123
0.132082 0.0112356 0.398019
0.0274407 0.0245607 0.391407
0.131938 0.0219439 0.397337
-0.0513108 -0.00826249 0.389115
0.0314661 0.0295949 0.391309
-0.00839767 0.0360066 0.3887
0.0274407 0.0239557 0.391407
0.133008 0.0259415 0.397109
0.134806 0.0198271 0.397587
0.0181487 0.0207116 0.391078
0.0064416 0.0298867 0.389854
-0.0510435 -0.00906444 0.389115
-0.0535304 0.010147 0.387766
0.136689 0.00960168 0.398297
-0.044671 0.0272872 0.387172
0.0504949 -0.0149025 0.395064
0.0136946 0.0259104 0.390473
0.137786 0.0117537 0.398204
0.137006 0.0139018 0.398026
0.0181487 0.0199056 0.391078
0.137952 0.0181979 0.397795
-0.0682103 0.00614173 0.387172
0.137658 0.0218731 0.39754
0.134842 0.0265539 0.397088
-0.0462669 0.0252923 0.387172
0.0185206 0.0303325 0.390422
0.13857 0.0181983 0.397805
0.136765 0.0147182 0.39792
0.138554 0.0188111 0.397759
0.136928 0.00399541 0.398594
0.138491 0.0214655 0.397578
-0.0474638 0.0236964 0.387172
-0.0478628 0.0232975 0.387172
0.138324 0.0100116 0.398278
0.137923 0.018604 0.397713
0.00689963 -0.0225227 0.393061
0.0181487 0.0188981 0.391078
-0.0503084 -0.0100669 0.389115
0.0681624 0.0218618 0.393648
0.0217757 0.0217191 0.391078
-0.0494586 0.0209036 0.387172
-0.0462669 0.0236964 0.387172
0.138663 0.0124677 0.398073
0.0185206 0.0287232 0.390422
-0.048905 -0.00986639 0.389115
0.0225817 0.0217191 0.391078
0.0100564 0.0306877 0.389824
0.137279 0.0181902 0.397628
0.00643526 0.033068 0.389471
0.0100568 0.0302873 0.38984
0.0173155 0.0267145 0.390464
0.137265 0.0185981 0.397587
-0.0497069 -0.0108688 0.389115
-0.0506556 0.0189088 0.387172
-0.0539463 0.00415449 0.387883
-0.0402636 0.030066 0.386991
0.138729 0.0265539 0.397088
0.0388361 0.0126956 0.392438
0.00162587 0.00136774 0.391078
0.140399 0.0259462 0.397181
-0.047702 -0.0110693 0.389115
0.0181183 0.025907 0.390422
0.138729 0.0257355 0.397088
0.0173136 0.0247 0.390422
0.138729 0.0249172 0.397088
0.0452161 0.0292176 0.391656
0.0136698 0.0314866 0.389767
0.137941 0.00385618 0.398358
-0.048504 -0.0128737 0.389115
0.00523523 0.0238553 0.389767
0.0173078 0.0260995 0.390291
0.0100485 0.0320684 0.389516
0.00926721 0.0168548 0.390422
-0.0526504 0.0141211 0.387172
0.0209345 0.0267116 0.390422
0.136191 0.0255153 0.396845
-0.00158346 0.0532646 0.387494
0.12535 0.0258813 0.396188
0.00926693 0.0158485 0.39041
0.0100547 0.0268668 0.389755
0.0209169 0.0309102 0.390094
0.0136698 0.0296792 0.389767
0.00282212 0.0270375 0.389321
-0.0530494 0.0121263 0.387172
0.0136698 0.0290767 0.389767
0.136583 0.0251033 0.396797
0.0522641 0.00988051 0.393061
-0.0539151 0.0025542 0.387659
0.0172846 0.0314866 0.389767
0.138729 0.021439 0.397088
0.135789 0.00303295 0.398064
0.0172846 0.0308841 0.389767
0.0451839 0.0296001 0.391376
0.00643442 0.026643 0.389419
0.0343013 0.0187144 0.391451
-0.0522514 0.00973246 0.387172
0.0424565 0.0114773 0.392261
0.0424575 0.0110733 0.39227
0.138729 0.0187793 0.397088
-0.0538473 0.00733864 0.387172
0.0245554 0.0238954 0.390422
-0.0538473 0.00574275 0.387172
-0.0444943 -0.0170839 0.389115
0.0455619 0.0291805 0.391159
0.138729 0.0165288 0.397088
-0.0515057 0.000956073 0.387564
-0.0115564 0.0420491 0.387172
-0.0538473 0.00474533 0.387172
-0.0522514 0.00614173 0.387172
0.0277739 0.0247 0.390422
-0.0526504 0.00554327 0.387172
0.0277739 0.0240965 0.390422
0.0104447 0.0262352 0.389322
-0.0526504 0.00494481 0.387172
-0.0538473 0.00334893 0.387172
0.0444347 0.014293 0.391883
-0.0526504 0.0037479 0.387172
0.00281674 0.0297889 0.388579
0.0104409 0.0266267 0.389181
-0.0538473 0.00175305 0.387172
-0.0526504 0.00215202 0.387172
0.138729 0.0124369 0.397088
-0.00438233 0.0337276 0.387825
0.138729 0.0118231 0.397088
0.0463476 0.0277575 0.390987
-0.0522514 0.00135408 0.387172
0.049707 0.0122794 0.392061
0.0455421 0.0255417 0.390989
-0.00438141 0.033321 0.387744
0.0683625 0.0219985 0.392469
0.0140467 0.0274219 0.389083
0.0313948 0.0206768 0.390422
-0.0522514 -0.00123923 0.387172
0.00482728 0.0154006 0.389259
-0.00437731 0.0348865 0.387382
-0.003577 0.0388573 0.387172
0.00121882 0.00136321 0.389784
-0.0510545 -0.00343357 0.387172
0.00681968 0.0261802 0.388507
0.0104246 0.0277863 0.388572
-0.0506556 -0.004431 0.387172
0.00482409 0.0149896 0.389002
0.00681838 0.025775 0.388433
0.140693 0.00915799 0.396855
-0.0517949 0.000754673 0.386742
0.138729 0.00343471 0.397088
0.00601834 0.0237756 0.388465
0.0569656 0.0118726 0.391967
-0.0500571 -0.00642586 0.387172
0.00681039 0.0301426 0.387977
0.140251 0.0258435 0.395609
-0.0498576 -0.00702431 0.387172
0.014029 0.026186 0.388593
0.0389753 0.0290781 0.389785
0.0447277 0.0158689 0.390914
-0.0494586 -0.00742328 0.387172
0.0104109 0.0301494 0.388065
-0.0491927 -0.00822122 0.387172
0.0068064 0.0307242 0.38775
0.0458294 0.0290944 0.390005
-0.0486607 -0.00941814 0.387172
0.044727 0.013049 0.390908
-0.0456399 0.0235787 0.385247
0.0104058 0.0305342 0.387873
0.0454117 0.0294861 0.38987
0.00680243 0.0329027 0.387524
-0.0480622 -0.00981711 0.387172
0.0333532 0.0198405 0.389799
0.00683036 0.00657353 0.389115
-0.0484189 0.0196088 0.385247
-0.0484189 0.0192118 0.385247
0.0442805 0.0166579 0.390523
0.0447027 0.0136457 0.390695
-0.0470648 -0.011014 0.387172
0.0466223 0.0276814 0.389914
0.020029 0.0273783 0.388465
0.00962414 0.016175 0.388589
0.0442772 0.0162543 0.390494
0.0228311 0.0293799 0.388465
0.138429 0.0258079 0.395064
-0.0500068 0.0160359 0.385247
0.014001 0.031329 0.387817
0.0103976 0.031908 0.387569
0.0499717 0.0122453 0.39097
0.0228311 0.028179 0.388465
0.00642939 0.00296477 0.389115
0.00680477 0.0265225 0.387657
-0.0492128 0.0156389 0.385247
0.006799 0.0312896 0.387328
0.014001 0.0297305 0.387817
-0.0508008 0.013654 0.385247
0.044677 0.0142415 0.390471
0.138429 0.0233653 0.395064
0.0228311 0.0265777 0.388465
0.014001 0.029131 0.387817
-0.0458679 -0.0138068 0.387172
0.024032 0.0259773 0.388465
0.00602841 -0.000243022 0.389115
-0.0452694 -0.0144053 0.387172
-0.0515948 0.0104781 0.385247
-0.0514624 0.00981642 0.385247
-0.044671 -0.0150037 0.387172
0.00522647 -0.00345081 0.389115
0.138429 0.0188872 0.395064
0.00679791 0.0268948 0.387267
-0.0519918 0.00710367 0.385247
0.00482549 -0.00465373 0.389115
0.00679519 0.0288786 0.387112
-0.0430751 -0.0162006 0.387172
0.0332432 0.0293836 0.388514
0.0276347 0.0249765 0.388465
-0.0519918 0.00571421 0.385247
-0.0515948 0.00591271 0.385247
0.0332411 0.0287812 0.388489
0.0572093 0.0118394 0.390873
0.00442452 -0.0066586 0.389115
-0.0521241 0.00492024 0.385247
-0.0515948 0.00531723 0.385247
0.0332431 0.0277821 0.388513
0.0332445 0.0267823 0.388529
-0.0418782 -0.0177965 0.387172
-0.0519918 0.00372927 0.385247
0.0143891 0.0261128 0.387506
0.00282063 -0.00986639 0.389115
-0.0515948 0.00372927 0.385247
-0.0519526 0.00789185 0.384957
0.0143969 0.0221316 0.387715
0.0107878 0.0264937 0.387237
-0.0519918 0.0029353 0.385247
0.0332421 0.0257796 0.388502
-0.0519918 0.00214132 0.385247
1.38107e-05 -0.0138761 0.389115
0.00678554 0.0324226 0.386562
0.0332408 0.0249779 0.388486
-0.00396305 0.0329648 0.385914
0.00678534 0.0320234 0.386551
-0.0515948 0.00134735 0.385247
0.0332449 0.0233794 0.388534
0.138429 0.0115593 0.395064
-0.0492858 -0.00620461 0.385818
0.00600753 0.0113458 0.387767
0.00360448 0.0185098 0.387172
-0.00396181 0.0337496 0.385793
0.138429 0.0111522 0.395064
0.0143788 0.0268921 0.387228
0.0336636 0.0195867 0.388745
0.0490208 0.0158244 0.389817
0.033242 0.0227769 0.3885
-0.0515948 -0.000240606 0.385247
0.00260587 0.019697 0.386981
0.0332429 0.0217767 0.388511
0.022774 0.0285078 0.387494
-0.0402649 -0.0191846 0.387005
0.138429 0.00952376 0.395064
-0.0515948 -0.00123308 0.385247
0.0445116 0.0228077 0.389025
0.00440303 0.0161182 0.387225
0.0107802 0.0258771 0.386964
0.138429 0.00870955 0.395064
0.0332435 0.0201756 0.388518
0.00640894 0.00675247 0.387878
0.00600557 0.0101437 0.387641
0.0107726 0.0292457 0.386691
-0.0408437 -0.0185776 0.386821
0.0445085 0.021804 0.388998
0.0143654 0.0286611 0.386867
-0.0504038 -0.00262253 0.385247
0.0064085 0.00575278 0.387851
0.0143614 0.0298487 0.38676
-0.00395795 0.0349082 0.385417
-0.0501391 -0.00328418 0.385247
-0.0362925 -0.0217861 0.38717
0.0445083 0.0202005 0.388996
0.00718403 0.0260497 0.386569
-0.0372073 -0.0200486 0.387004
-0.0504038 -0.0038135 0.385247
0.0445024 0.0205986 0.388945
-0.00991103 0.0315184 0.385247
-0.0131968 -0.0230608 0.388481
0.00640934 0.00335525 0.387902
-0.0379977 -0.0203107 0.38693
-0.0279539 -0.0242144 0.387722
0.00677787 0.0315902 0.386125
0.0447315 0.0155987 0.389194
-0.0338988 -0.0213873 0.387172
-0.0496098 -0.00500446 0.385247
0.0449475 0.0129962 0.389328
0.04451 0.0175956 0.389011
-0.045724 -0.0133658 0.385957
-0.00832308 0.0307245 0.385247
-0.0446697 0.0226951 0.383733
-0.0500252 0.0155828 0.383865
0.044508 0.0167931 0.388994
-0.0494775 -0.00619543 0.385247
-0.0478254 0.0203193 0.383672
-0.0462359 0.0226875 0.383604
-0.0231662 -0.0246215 0.387841
-0.0440634 0.0242696 0.383618
0.0485675 0.0134 0.389403
-0.0167843 -0.0238397 0.388126
0.0059998 0.00973489 0.387268
0.00640458 0.00455103 0.387614
0.00717429 0.0299925 0.386045
0.00441371 -0.00624234 0.388164
-0.0514629 0.00649155 0.384262
0.0449238 0.0137913 0.389123
-0.0489482 -0.00712173 0.385247
-0.0221661 -0.02462 0.387817
-0.0482279 0.0175543 0.383728
-0.0199692 -0.0234224 0.387839
-0.0484189 -0.00738639 0.385247
-0.0443263 -0.0143584 0.385908
-0.0488159 -0.00778338 0.385247
-0.0199706 -0.0242235 0.387867
0.00640175 0.00574677 0.387442
-0.00633813 0.0295335 0.385247
-0.0368478 -0.0209637 0.386717
0.00481188 -0.00504045 0.388018
-0.0486162 0.0171564 0.383672
0.0335552 0.0285078 0.387494
-0.0454377 0.0218933 0.383541
-0.0490008 0.0179432 0.383588
0.00560918 -0.00204088 0.387852
0.0445033 0.0145869 0.388952
-0.0514321 0.00846636 0.384033
-0.0482601 -0.00825976 0.385247
0.0335537 0.0281072 0.387476
-0.0470187 0.0199172 0.383541
0.0456311 0.024967 0.388318
-0.0179709 -0.0234225 0.38784
0.00401186 -0.00643952 0.387985
-0.039801 -0.0193524 0.386372
0.000413798 -0.0130431 0.38819
0.0071701 0.0305713 0.38582
-0.0434481 0.0242571 0.383422
-0.0340698 -0.0221668 0.38685
-0.0103851 -0.02184 0.388127
-0.0411738 -0.0179499 0.386177
-0.0480219 -0.00917284 0.385247
0.0335423 0.0290955 0.387344
-0.0450192 0.0237254 0.383342
-0.0139783 -0.0226296 0.38795
0.00241308 -0.0100395 0.388059
-0.00897584 0.030826 0.384861
-0.0514206 0.00767317 0.383947
-0.00145273 -0.0151744 0.388135
-0.000386148 -0.0138398 0.388095
-0.0191633 -0.0242135 0.387707
-0.0304158 0.0329562 0.3835
-0.042254 0.0250422 0.383342
0.0481127 0.014788 0.38897
-0.0472279 -0.00976832 0.385247
-0.0476249 -0.0101653 0.385247
-0.0181648 -0.0238144 0.387714
-0.0191588 -0.023409 0.387616
0.00599506 0.00912896 0.386962
-0.0477827 0.0197086 0.383328
-0.0382043 -0.0197484 0.38633
-0.0452771 -0.0133513 0.385538
-0.051797 0.00846131 0.383804
-0.0327735 0.0325476 0.383342
-0.0350472 -0.0220218 0.386637
-0.0510668 0.00173987 0.384262
-0.00928206 -0.0211329 0.387995
-0.00804999 0.0301638 0.384846
-0.0465993 0.0201044 0.383342
-0.0479155 0.0188532 0.383338
-0.0256813 0.0339544 0.383615
-0.0352391 -0.0213532 0.386556
-0.0281749 -0.0239096 0.387098
-0.0497645 0.0163533 0.383381
-0.0300936 -0.0237693 0.386979
-0.0472587 0.0189855 0.38335
-0.033221 -0.0223183 0.386712
-0.0489695 0.0175367 0.383342
0.00080872 0.0218907 0.385816
-0.0281052 -0.023375 0.387054
0.00560459 -0.00144007 0.387535
0.00181265 -0.0106347 0.38789
-0.0328654 -0.022958 0.386748
-0.0468309 -0.0113563 0.385247
-0.0260802 -0.0241015 0.38719
-0.0358293 -0.0213489 0.386477
-0.00225189 -0.0159685 0.387992
-0.00308459 -0.0164342 0.387972
-0.00558372 -0.0190339 0.387997
-0.0162318 -0.0231456 0.387666
0.00599687 0.00574125 0.387079
-0.0139722 -0.0230192 0.38778
-0.0119744 -0.0214213 0.387787
-0.00638273 -0.019232 0.387958
-0.0428228 0.0256207 0.38313
-0.0464339 -0.0113563 0.385247
-0.0389865 -0.019874 0.386192
0.0335552 0.0231172 0.387494
0.0231156 0.0292334 0.386528
0.00480626 -0.00343706 0.387565
-0.0420999 0.0258186 0.383139
-0.0388711 0.0293683 0.383092
-0.0493665 0.0157597 0.383358
-0.0121079 -0.0222211 0.387795
-0.0171597 -0.02314 0.387572
0.00360993 -0.00783409 0.387757
-0.0321306 -0.0224238 0.386699
0.00161201 -0.00943211 0.387746
0.00599908 0.00275092 0.387222
-0.00752102 0.028907 0.384834
-0.0310761 -0.0232003 0.386801
0.138133 0.0258796 0.393061
-0.0413109 0.026082 0.383144
-0.00744774 -0.019962 0.387899
-0.0444057 0.0230562 0.383162
0.0036096 -0.00743384 0.387722
0.00239986 0.0200413 0.385932
-0.00710067 -0.0192674 0.38787
-0.0159623 -0.0226085 0.387589
-0.0255162 -0.0233783 0.387108
-0.00720295 0.0296572 0.384791
-0.0391724 0.0277927 0.383143
-0.0370051 -0.0203428 0.386279
-0.0221381 -0.0239903 0.387328
-0.0492376 0.0150364 0.38338
0.00173663 0.0205669 0.385845
-0.0461362 -0.012051 0.385247
-0.0231324 -0.0240723 0.387271
0.0335396 0.025102 0.387314
-0.045097 0.0220691 0.383164
-0.0319995 -0.023089 0.386718
0.00267773 -0.0092994 0.387765
-0.000383597 0.0235961 0.385532
0.0335292 0.0268896 0.387194
-0.00817929 -0.0202254 0.387844
0.00639559 0.00494351 0.38707
-0.0102426 -0.0211548 0.387785
-0.0491955 0.0167429 0.383257
0.0335336 0.0258956 0.387245
-0.039851 0.0285738 0.383026
0.0335236 0.0276831 0.387128
-0.0509517 0.0127982 0.383396
0.0020119 -0.0110321 0.387808
-0.0106847 0.0302698 0.384515
-0.045184 0.0230503 0.383063
-0.0151632 -0.0226082 0.387583
-0.0483026 0.0168754 0.383276
0.00716839 0.0263905 0.385728
-0.0150311 -0.0231421 0.387606
-0.0457769 0.022064 0.383071
-0.0135688 -0.0230129 0.387673
-0.0459061 -0.013077 0.38526
0.00559097 0.0109131 0.386594
-0.0271025 -0.0239684 0.386974
-0.02311 0.0335565 0.383585
-0.0197588 0.033769 0.383754
-0.0499124 -0.00499502 0.38452
0.00716234 0.031134 0.385403
-0.045243 -0.0125472 0.385247
-0.0300092 -0.0230907 0.386748
-0.0132678 -0.0225114 0.387635
-0.0436812 -0.0149381 0.385478
-0.0240815 -0.0240977 0.387131
-0.00424876 -0.0171589 0.387789
1.37635e-05 -0.0134291 0.387785
-0.00507649 0.027921 0.384908
-0.00157428 0.0255636 0.385247
-0.0150235 0.0333959 0.384012
-0.0111714 -0.0214141 0.387658
0.0337549 0.0207214 0.387494
-0.0240934 0.0333522 0.383509
-0.0111724 -0.0219486 0.38769
-0.04411 0.0237564 0.382995
0.00520337 -0.00303636 0.387396
-0.0290834 -0.0237583 0.386801
-0.00344958 -0.0171594 0.3878
-0.0450445 -0.0131427 0.385247
-0.0291592 -0.0231974 0.386752
-0.0497438 0.0149643 0.383221
-0.0409272 -0.0173327 0.385729
-0.0481509 0.0179704 0.383116
-0.0313067 0.0327916 0.383116
-0.0392258 -0.019198 0.385937
0.00274735 0.0187956 0.385869
-0.0358109 -0.021736 0.386279
-0.0193634 0.032978 0.383754
-0.0197576 0.032976 0.383731
-0.0172576 0.0336436 0.383826
-0.00138459 -0.0143255 0.38771
-0.0471933 0.0198908 0.383034
-0.0270939 -0.0233628 0.386851
-0.00207028 0.0248662 0.385205
0.00120586 0.020821 0.385639
0.00559971 -0.000241824 0.387198
-0.0217249 0.0337516 0.383557
-0.0380628 0.0297485 0.382905
0.00180232 0.0200298 0.38571
0.00440497 -0.00463317 0.387396
-0.0449783 -0.0138705 0.385247
-0.0202046 -0.0239186 0.387244
-0.0381676 -0.0193317 0.38596
-0.035015 -0.0217361 0.386281
-0.00907378 -0.0205141 0.387636
-0.00474574 0.0271261 0.384887
-0.00797501 -0.0194151 0.387625
-0.0159559 -0.0233979 0.387433
-0.040034 0.0277743 0.382889
-0.049957 0.0118088 0.383342
-0.00632877 0.0288953 0.384678
0.00379301 0.0160688 0.386037
-0.0509446 0.0108213 0.383342
-0.0440585 -0.0144019 0.385304
-0.0352063 -0.0209354 0.386196
-0.0402132 -0.018208 0.385744
-0.00211681 -0.0152892 0.387664
-0.0183435 -0.023388 0.387269
-0.00509961 -0.0182191 0.387674
-0.00613111 0.0281049 0.384711
-0.0250566 -0.0241157 0.386941
-0.0203329 -0.0233811 0.387155
0.00599304 0.00494047 0.386832
-0.0424893 -0.0161297 0.385476
-0.045243 -0.0149292 0.385247
-0.00335816 0.0267334 0.384942
0.00639727 -0.000241808 0.387172
-0.0193547 0.0341491 0.383582
-0.0171475 -0.0232566 0.387296
-0.0509446 0.0100312 0.383342
0.0335314 0.0225023 0.387219
0.00360676 -0.00702876 0.387417
-0.0310501 -0.0225436 0.386476
-0.0211853 -0.0240623 0.387109
-0.00398028 -0.0166176 0.387592
0.0335369 0.0213087 0.387283
-0.00949087 0.0308477 0.384309
-0.0500383 0.0126932 0.383209
-0.00996906 -0.020607 0.387503
-0.0347045 0.0317173 0.382856
-0.0262445 0.033916 0.383181
-0.0191365 -0.0233815 0.387162
-0.0252605 0.0339201 0.383228
-0.0505496 0.00983372 0.383342
-0.0230296 0.0339961 0.383343
-0.0503835 0.0108985 0.383281
-0.0152875 -0.0232604 0.38736
-0.044052 -0.0149292 0.385247
0.00239773 0.0204209 0.38559
-0.0510454 0.00894528 0.383358
-0.0310487 -0.0229408 0.386458
-0.0191367 -0.0237808 0.387168
-0.0163504 -0.0237903 0.387321
-0.0123613 -0.0213993 0.38739
-0.0416959 -0.0169246 0.385486
-0.0436639 -0.0161234 0.385326
-0.0391337 0.028653 0.382765
0.0335295 0.0219025 0.387197
-0.00144122 0.0250227 0.38507
-0.00437969 -0.0178159 0.387592
0.00480277 -0.00503104 0.387293
-0.0417918 0.0267766 0.382727
0.00716141 0.0279532 0.385353
-0.0177749 0.0337563 0.38361
-0.0115641 -0.0218008 0.387431
-0.0181415 -0.0241829 0.387217
-0.0301772 0.0328129 0.382978
-0.0344052 -0.0213302 0.386139
-0.0505496 0.00904367 0.383342
-0.043258 -0.0149292 0.385247
-0.0408022 0.0279575 0.382693
0.00319378 0.0178459 0.385755
-0.0410842 0.0267388 0.382749
-0.03289 -0.0220002 0.386257
-0.0330621 0.0317845 0.382874
-0.0372204 0.0298162 0.382762
-0.0260875 -0.023354 0.386706
0.00578989 0.00672981 0.386577
0.0337369 0.0199123 0.387288
-0.0350935 0.0309234 0.382796
-0.0291916 0.0329128 0.382994
0.138133 0.0196015 0.393061
-0.0171183 0.0328382 0.38366
-0.0361822 -0.0211232 0.385992
-0.0158049 0.0321884 0.383768
-0.022305 0.0333373 0.383337
-0.0510763 0.00792443 0.383342
-0.0163441 -0.0225842 0.387172
-0.0332585 0.031192 0.382864
-0.0302513 -0.0233384 0.386447
0.00559933 -0.00343357 0.387172
-0.00198253 -0.0146152 0.38745
-0.0161971 0.0328144 0.38369
-0.0129573 -0.0219933 0.387305
-0.0142191 -0.0223227 0.387252
-0.0360112 0.0300007 0.382767
-0.00315884 0.0259984 0.384827
-0.030175 0.0321199 0.382952
-0.0281217 0.0329707 0.383012
-0.0140269 0.0325876 0.383812
0.00716121 0.0267611 0.385341
-0.0240742 0.0333258 0.383205
-0.0506255 -0.00142663 0.383918
0.000679138 -0.0119521 0.387404
-0.0404079 0.0269716 0.382694
-0.0151479 -0.0225853 0.38719
-0.0431258 -0.0162525 0.385249
-0.0511421 0.00706854 0.383342
-0.00677401 -0.0198067 0.387472
-0.0232859 0.0333277 0.383227
-0.0360688 0.0307169 0.38268
-0.0222991 0.0339207 0.383236
-0.0318259 -0.0221309 0.386225
-0.0437532 0.0246016 0.382635
-0.0123581 -0.0219924 0.387289
-0.0181666 0.0327616 0.383535
0.000886908 0.0226243 0.385221
0.00173424 0.0217299 0.385316
-0.0371874 0.0292062 0.382694
-0.0173388 -0.0237774 0.387111
0.0339321 0.0193111 0.387239
-0.0363678 -0.0205191 0.385852
-0.0341422 0.030998 0.382744
0.00200925 -0.00982032 0.387298
-0.0340998 -0.0219227 0.38606
-0.0485137 0.0163312 0.382863
-0.0422655 -0.0162194 0.385247
-0.0373579 -0.0209146 0.385812
-0.015142 0.0327077 0.383675
0.00374989 0.0167702 0.385704
-0.0150115 0.0320514 0.383707
-0.00408245 0.0261865 0.384677
-0.0382365 0.0281528 0.382669
-0.0111595 -0.021092 0.387245
-0.0272162 0.0329762 0.382966
0.0447455 0.0227229 0.387579
-0.0102745 0.0314161 0.383997
-0.0110657 0.030822 0.38399
-0.00936477 -0.0201961 0.387281
-0.0494666 -0.00538585 0.384135
1.36664e-05 0.0235665 0.385049
-0.0432217 0.0247298 0.382584
-0.0354766 0.0301248 0.382673
-0.0090415 0.0298942 0.384143
-0.00238103 -0.0150097 0.387326
-0.00816868 0.0295859 0.384209
0.00121065 -0.00941814 0.387172
-0.00557471 -0.018604 0.38737
-0.0509446 0.00568596 0.383342
0.00585 0.0106356 0.386164
-0.0184229 0.0336047 0.383384
-0.0110635 0.0316071 0.383913
-0.034289 0.0316979 0.382622
0.00585814 0.00201648 0.386695
-0.0143483 -0.0229817 0.387147
-0.02721 0.0336919 0.382878
-0.0380304 0.0289347 0.382579
-0.0366482 0.0305097 0.382554
-0.0141416 0.0319457 0.383703
-0.0321249 0.032491 0.382675
-0.00597269 -0.0182013 0.387293
-0.0100766 0.0308222 0.383992
-0.0517346 0.00450088 0.383342
-0.0107585 -0.0205893 0.387172
-0.0211113 0.0339158 0.38318
-0.000784344 -0.0130113 0.387243
-0.0311552 -0.0223913 0.386136
0.0035892 0.0178354 0.38553
-0.0100111 0.0300982 0.38401
-0.000252268 -0.0131445 0.38725
0.000807212 0.0217189 0.385122
-0.0120486 0.0315967 0.383786
-0.0130351 0.0317889 0.38372
-0.0312395 0.032 0.382697
-0.0411378 -0.0170452 0.38522
0.0023956 0.0207998 0.385247
-0.000184674 0.022769 0.384981
-0.00836465 -0.0193924 0.387172
-0.0120493 0.031005 0.383806
0.0018752 -0.00915038 0.387092
-0.0321221 0.0318967 0.382641
-0.0441243 0.0245887 0.382433
-0.0413631 0.0273456 0.38241
-0.0433349 0.0253762 0.382423
-0.0386096 0.0289256 0.382459
-0.00605878 0.027878 0.384316
-0.0509446 0.00390834 0.383342
-0.0103581 -0.0205865 0.387118
-0.0075667 -0.0189934 0.387172
0.0147149 0.0259829 0.385579
-0.0201231 0.0338484 0.383163
-0.0404791 -0.0173111 0.385247
-0.00691475 0.0288595 0.384202
-0.0250759 -0.0233398 0.38647
0.00755512 0.0259561 0.38518
-0.0398898 -0.0179093 0.385307
0.0010058 0.0209914 0.385121
0.00320423 -0.00742032 0.387017
-0.00117592 0.0239482 0.384807
-0.0165774 0.0337327 0.383342
-0.00437494 -0.0165996 0.387172
-0.0190718 0.0338513 0.383194
-0.0389068 -0.0189067 0.385403
-0.0171702 0.032943 0.383346
-0.0261028 0.0331361 0.382839
1.37405e-05 -0.0124092 0.387136
-0.0511421 0.00292078 0.383342
-0.0237921 0.0339569 0.382901
-0.0510275 0.00479576 0.383224
-0.0421444 0.0265532 0.382347
-0.00357668 -0.0159997 0.387137
-0.0362455 0.0297143 0.382465
0.00179952 0.0209907 0.38511
-0.021105 0.0333136 0.383065
0.0447357 0.0205218 0.387494
-0.044513 0.0234036 0.382387
-0.00118306 -0.0142045 0.387137
-0.00236414 0.0255192 0.384578
-0.0456921 0.0226141 0.382362
0.0447244 0.0219138 0.387396
-0.0150017 0.032162 0.383454
-0.0511421 0.00213073 0.383342
-0.0190699 0.0331898 0.383155
-0.0405666 0.0273399 0.38233
-0.0295587 0.0320934 0.382636
-0.0389889 0.0289146 0.382313
-0.033877 0.0316813 0.382422
-0.0178871 0.033193 0.383193
-0.00354771 0.0328015 0.384002
0.00714813 0.0320631 0.384638
-0.0396851 -0.018899 0.385247
0.00558816 0.0025459 0.386399
-0.0323077 0.0312941 0.382505
-0.0405603 0.0277297 0.382272
-0.0385 -0.0189019 0.385306
0.00370092 -0.00612147 0.386832
-0.0146029 0.0331416 0.383359
-0.0350535 0.0308882 0.38236
-0.0409526 0.0273346 0.382256
0.00358657 0.0188148 0.385247
0.04473 0.0199203 0.387445
-0.0161783 0.0331316 0.383245
-0.0151278 0.0329399 0.38331
0.00598177 0.00701999 0.3861
0.138133 0.0123108 0.393061
-0.000779241 0.0229519 0.384723
-0.0299396 0.0332614 0.382465
-0.0334759 0.0320687 0.382342
-0.00684608 0.0281223 0.384045
-0.00354661 0.0335824 0.383883
-0.0488542 0.0167072 0.38244
-0.0252263 0.0331514 0.382711
-0.0391789 0.0281216 0.382245
-0.00011846 0.0218328 0.384795
-0.0433191 0.0237912 0.382283
0.00267127 -0.00834704 0.386833
0.00519185 -0.00143636 0.386538
-0.00414384 0.0268829 0.384243
0.00587995 0.0086078 0.385941
0.00240558 -0.00901173 0.386852
-0.0366195 0.0298949 0.382254
0.00279206 0.0180174 0.385174
-0.0161779 0.0321437 0.383236
-0.00493498 0.0268787 0.384186
-0.0509446 -0.000239416 0.383342
-0.00354557 0.0345613 0.38377
-0.0126322 0.0309797 0.383493
0.138133 0.0108931 0.393061
-0.0505496 -0.000239416 0.383342
0.0447384 0.0169291 0.387517
0.00309012 0.0169277 0.385217
-0.0425216 0.0247704 0.382197
0.00519146 -0.00203369 0.386509
0.00597902 0.00791148 0.385923
0.0230581 0.0285647 0.385567
0.0447297 0.0177243 0.387442
0.0017988 0.0195939 0.384955
0.138133 0.0102856 0.393061
-0.0509446 -0.00122698 0.383342
-0.00809418 0.0290275 0.383806
-0.0484545 0.0159172 0.382396
-0.0505496 -0.00102947 0.383342
-0.0338649 0.0304882 0.382285
0.0146999 0.0269488 0.385187
-0.0513396 -0.00181952 0.383342
-0.0291496 0.032077 0.382441
-0.0309778 0.0325911 0.382307
0.00386471 -0.00528768 0.386601
0.0004123 -0.0114016 0.386785
-0.0203039 0.0330972 0.382846
-0.0371047 -0.02009 0.385247
-0.00275797 0.0262883 0.384234
-0.0429046 0.024961 0.3821
-0.00526232 0.0278543 0.38399
-0.0450723 0.0225996 0.382118
0.0447282 0.0169252 0.387429
0.0447323 0.0161282 0.387464
-0.0132812 0.0326686 0.383216
-0.0284162 -0.0229055 0.385863
-0.0035486 0.0270706 0.384098
-0.0114421 0.0321526 0.383342
-0.0361122 -0.02009 0.385247
0.0146948 0.0275346 0.385053
0.00677668 0.00453275 0.386057
0.00189762 0.0188961 0.384882
-0.0421108 0.025351 0.382043
0.0111118 0.0306759 0.384639
-0.00433874 0.0276549 0.383968
-0.00277582 -0.0153848 0.386721
0.0447315 0.0145308 0.387458
-0.010257 0.0317576 0.383342
0.00517795 0.0108823 0.385503
0.00479 -0.00143531 0.386253
0.0146867 0.0297006 0.38484
0.0442816 0.0208952 0.387015
0.00637965 0.0017482 0.386105
0.00557998 0.00532532 0.385834
0.00753787 0.031441 0.3843
-0.0497595 -0.00379464 0.383342
-0.0345243 -0.020884 0.385247
-0.00946699 0.0313626 0.383342
-0.0493645 -0.00379464 0.383342
-0.00117413 0.0247031 0.384213
0.00714019 0.0314336 0.384211
0.0146917 0.0259416 0.384971
-0.00038233 0.0239141 0.384258
0.048334 0.0145336 0.387531
0.0111103 0.0286904 0.384588
-0.00867694 0.0309675 0.383342
0.00319891 -0.00700985 0.386375
-0.0497595 -0.00537474 0.383342
0.00753736 0.0300528 0.384274
-0.0489695 -0.00517723 0.383342
0.0483232 0.0149296 0.387444
0.00280055 -0.00780556 0.386345
-0.00788689 0.0305725 0.383342
-0.0325393 -0.021678 0.385247
0.000810124 -0.0111919 0.386428
-0.0022284 0.0258721 0.383931
-0.00749187 0.0301775 0.383342
0.00199434 0.0211515 0.384424
0.00399226 -0.00441875 0.38609
0.00439012 -0.0042197 0.38609
-0.000777809 0.0242948 0.384016
0.00637649 0.000156652 0.385914
-0.0309514 -0.0220749 0.385247
-0.0035404 0.034116 0.383211
-0.0479819 -0.00715235 0.383342
0.0337887 0.0287659 0.385601
0.00159828 0.0187755 0.384442
0.00517452 0.00889012 0.385247
-0.00591177 0.0293874 0.383342
-0.0477844 -0.00774489 0.383342
0.0337863 0.0277706 0.385574
-0.0436184 0.0249189 0.381456
-0.0473894 -0.00853494 0.383342
-0.0447977 0.0237397 0.381456
0.0337856 0.0267768 0.385567
-0.0471919 -0.00912747 0.383342
-0.0277755 -0.0228689 0.385247
0.033786 0.0257837 0.38557
0.0337877 0.0247917 0.38559
-0.0461735 0.0198089 0.381456
0.00437371 0.0128399 0.384647
-0.0471562 0.0182366 0.381456
0.0337862 0.0237973 0.385573
-0.0458093 -0.0113001 0.383342
0.0337856 0.0228036 0.385567
-0.003935 0.0274009 0.383182
-0.0454142 -0.0120902 0.383342
0.0337866 0.0218109 0.385578
0.0233939 0.0288861 0.384556
-0.0487285 0.0146988 0.381456
0.00752842 0.0262598 0.383818
0.033788 0.0210172 0.385594
0.00752103 0.0317658 0.383442
-0.0446242 -0.0128802 0.383342
0.0110821 0.03178 0.383613
0.0337882 0.0200239 0.385595
0.00752643 0.0266483 0.383717
0.00753149 0.0223138 0.383975
0.0233888 0.0282855 0.384473
0.0146522 0.0290373 0.383936
0.0449517 0.0236199 0.38592
-0.0499077 0.0103749 0.381456
0.0110806 0.0301947 0.383561
-0.0430441 -0.0144603 0.383342
0.00752112 0.0278149 0.383446
-0.0503008 0.00840954 0.381456
0.00358657 -0.00500446 0.385247
-0.0503008 0.00781992 0.381456
-0.0503008 0.00703376 0.381456
0.0055609 0.00728827 0.384514
0.0150342 0.0274299 0.383587
0.0150368 0.026051 0.383655
-0.0161028 0.0335667 0.381456
0.137839 0.0154726 0.391078
0.137839 0.0148681 0.391078
0.0489753 0.0128948 0.386289
0.0150361 0.0246662 0.383638
-0.0129581 0.0327806 0.381456
-0.00313459 0.034391 0.381879
0.015031 0.0242625 0.383507
-0.0499077 -0.000434779 0.381456
0.0150264 0.0254404 0.38339
-0.0499077 -0.0010244 0.381456
-0.0506939 -0.00181056 0.381456
0.0150222 0.0268155 0.383282
0.0150254 0.0250435 0.383363
-0.0495147 -0.00220364 0.381456
0.0114513 0.0305245 0.38274
0.0150092 0.0295547 0.38295
0.0114616 0.0234463 0.383085
0.0340607 0.0211384 0.384187
-0.00313004 0.0339482 0.381326
0.0340391 0.0240923 0.383944
0.00514618 0.0100259 0.383138
0.0451804 0.0235319 0.384483
0.0451754 0.0239254 0.38444
0.0078845 0.0308519 0.381908
0.0451873 0.0183841 0.384541
0.0456421 0.0108691 0.385035
0.00787719 0.0316095 0.381554
0.0114264 0.0288838 0.381906
0.0114209 0.0316236 0.381724
0.0149737 0.0288942 0.382044
-0.0496633 0.00836836 0.379588
0.0527557 0.012846 0.384829
0.0470485 0.0262423 0.383562
0.137548 0.0147935 0.389115
0.0489495 0.0289645 0.382973
0.0454982 0.0104393 0.383821
0.0526312 0.013607 0.383921
0.0526301 0.0128155 0.383913
0.0526246 0.012023 0.383873
