ply
format ascii 1.0
comment Created by Open3D
element vertex 1893
property double x
property double y
property double z
end_header
-8.8238 -31.8311 477.818
-4.36978 -29.2456 478.046
-33.5695 10.7466 477.665
-7.08639 -36.5119 477.518
-41.9941 -13.264 476.937
-53.8161 0.844082 475.935
-10.061 -32.0768 477.79
-31.4428 -0.142979 477.942
1.83947 -42.1055 477.121
-44.3755 11.9615 476.77
22.1493 7.29319 478.413
0.66775 3.24839 478.971
-4.12944 6.80476 478.919
-25.1833 -35.1769 477.028
-30.0442 -4.93115 478.018
-23.6566 -31.0608 477.394
3.06655 5.31615 478.949
-55.1327 0.96715 475.805
-51.018 -14.1028 476.056
-54.3651 -5.07339 475.869
-51.1244 -5.02231 476.229
-25.1267 -34.0099 477.127
-0.778368 -29.9893 478.058
18.6851 -8.32545 478.565
0.585088 -4.36204 478.984
-55.6207 -1.99097 475.762
-49.5287 1.09184 476.439
2.23941 -6.67801 478.964
-43.04 7.27201 477.024
-54.3008 -2.85466 475.922
-27.1566 -32.0352 477.174
-43.1512 -13.238 476.89
-27.0452 -45.5291 476.086
-52.9365 -8.85631 476.006
-1.89386 -26.8226 478.268
-48.2987 -9.8939 476.482
-50.5072 -1.00616 476.356
-53.9203 -0.142476 475.984
-55.1315 -6.946 475.794
-26.439 -35.0317 477.015
-26.5609 -44.1875 476.248
-0.840279 -30.9783 478.029
-32.8354 -10.7874 477.786
4.30738 7.54965 478.958
21.4122 -1.63073 478.559
-8.20684 -31.5908 477.927
-52.4001 -9.95912 476.064
-46.2268 7.02102 476.757
-0.0353442 1.96659 479.042
-28.3198 -6.08875 478.172
16.9502 -12.5412 478.588
-55.6263 -1.37484 475.81
-1.06955 -1.92203 479.051
-25.1617 -36.3496 477.012
1.32733 -29.1293 478.169
-52.0843 -3.05825 476.21
-50.1813 -6.06614 476.386
3.81109 -9.00604 478.963
3.01712 7.99684 478.988
12.7376 -14.0321 478.692
1.275 -42.9599 477.14
3.31301 -18.4968 478.704
1.57796 5.19317 479.045
-55.6263 -4.94949 475.81
-30.3797 -3.92933 478.096
-54.088 -2.03295 476.013
3.11648 -7.98562 479.003
-5.23751 -29.8696 478.122
-26.9227 -32.9021 477.194
1.91783 -43.0265 477.146
-54.5263 -8.89545 475.892
-44.0139 -13.7315 476.866
-52.8875 -12.0298 476.01
-26.8147 -43.3352 476.373
-42.1793 12.2164 477.075
7.28484 -10.0688 478.931
-52.0486 -4.85517 476.233
-30.9721 -4.99758 478.065
1.90893 5.8965 479.053
3.3151 8.54314 479.007
-26.1832 -3.86069 478.363
-2.8895 7.92302 479.021
-3.50421 -28.6373 478.229
-55.3842 -6.05939 475.848
-30.0076 8.15521 478.09
14.4761 10.5234 478.77
-54.6503 -8.77219 475.898
-30.6291 -1.38153 478.124
1.8235 -26.9095 478.347
16.5423 8.62111 478.744
-0.407692 1.22215 479.107
1.94227 -44.0174 477.079
-51.8451 -10.7509 476.176
13.9811 -9.81817 478.809
-26.5715 -43.0942 476.439
-54.9043 1.95391 475.962
-33.8308 8.27509 477.859
-21.2395 0.600935 478.663
-51.493 -4.09118 476.343
-40.0647 7.52514 477.403
-26.8112 -44.5635 476.312
19.187 6.5537 478.715
-55.3941 -0.142243 475.933
-17.2384 -32.3213 477.745
-19.217 -31.8236 477.706
-26.8142 -44.0749 476.365
-54.1763 3.68096 476.066
-47.3205 -14.9577 476.576
-49.5373 -7.96072 476.523
-53.4409 -7.66589 476.106
-51.9034 -2.11668 476.334
0.781971 -33.9697 477.953
-51.1889 -5.8193 476.384
-31.5886 -21.1784 477.65
-44.2669 -13.239 476.93
-49.9454 -7.71331 476.491
18.1933 -11.7995 478.675
-26.226 -46.9322 476.141
-33.4319 -9.83057 477.908
19.6352 3.97457 478.759
-53.8022 -10.6244 476.029
-51.9855 4.29994 476.333
22.9036 0.848889 478.636
-30.3256 -2.0012 478.22
-52.0472 -4.0705 476.333
-32.2754 7.04002 478.045
-25.3048 -38.1707 476.992
-45.2017 -13.2183 476.866
-1.02605 -32.9612 478.05
2.5712 7.17996 479.126
-1.10298 0.00574467 479.189
-1.0082 -33.9649 477.985
-34.8219 7.28491 477.87
-16.9834 -36.0184 477.536
-31.4549 -5.92314 478.124
-55.6435 -1.62187 475.957
-1.02834 9.90994 479.098
20.9212 8.53713 478.669
-32.2141 0.996493 478.117
-54.0171 -5.81592 476.113
14.2312 10.5257 478.877
-52.7208 -2.98028 476.286
-45.1267 -13.7318 476.878
-54.1724 -9.92553 476.031
-25.6435 -30.5757 477.544
23.8933 -4.7304 478.59
0.831658 -33.0859 478.065
-51.3804 -1.87034 476.443
-49.5301 -13.4727 476.453
15.967 -9.57088 478.849
-27.6715 -5.34801 478.385
-31.8694 2.82992 478.149
-46.1909 -13.0093 476.81
-31.2098 5.96806 478.165
-25.695 5.06329 478.503
-26.3135 -36.1362 477.13
2.57138 -7.21864 479.159
-34.211 3.94327 477.984
-32.544 -7.9449 478.051
-54.9698 -7.91082 475.995
2.56075 -44.1503 477.18
-30.6339 -6.83251 478.199
-49.4237 -7.30379 476.617
23.399 -5.84664 478.624
18.4479 5.68712 478.846
0.138398 -3.81798 479.222
-24.9627 -37.1425 477.145
17.7044 6.92795 478.868
-33.9176 -10.8728 477.92
18.1983 -9.57003 478.806
1.94241 -45.0105 477.125
17.5384 -8.66121 478.851
-49.4316 1.33941 476.694
10.138 -15.1548 478.905
-47.2266 6.8168 476.874
21.1706 -9.31991 478.701
-44.8926 11.7205 477.015
-26.8684 -33.6533 477.328
-31.2467 -11.9091 478.099
-33.4756 2.82952 478.091
-25.3668 -39.12 476.997
-16.1294 -32.5787 477.889
-10.5612 -32.9592 478.02
-0.951621 -34.9635 477.997
20.679 -4.73255 478.805
-26.4445 -45.5565 476.372
19.5637 -6.84149 478.829
-0.902552 -31.8578 478.218
17.2086 9.5333 478.878
-22.1917 -30.345 477.806
19.1899 10.2757 478.789
3.56464 8.91887 479.189
4.06095 9.70463 479.171
3.31643 -8.58476 479.199
-34.9543 4.93396 477.987
-26.1742 -37.9606 477.067
-32.0894 -21.4297 477.737
-0.738996 0.850041 479.294
-32.6148 1.59134 478.182
-6.59664 -36.1685 477.885
-31.0533 -0.886427 478.298
0.709494 11.6493 479.165
-40.2425 7.52757 477.557
18.4497 7.79674 478.892
-25.5125 -40.1255 476.947
-52.8293 -4.04208 476.375
-32.9447 2.08677 478.175
2.24082 6.64402 479.264
-39.2327 -19.4323 477.313
-26.315 -37.0777 477.158
-44.089 7.27523 477.235
5.05155 -18.7537 478.929
-0.656211 -2.75087 479.316
-26.3018 -40.123 476.919
-28.1183 -30.0816 477.555
20.9293 4.07456 478.854
-35.9002 6.21291 477.943
20.4344 2.71017 478.887
-45.0094 -16.0812 476.942
0.275057 2.77483 479.324
-46.4222 -12.0311 476.931
21.1749 8.29135 478.798
4.06063 13.7583 479.123
-31.9602 0.27004 478.271
-28.3685 -29.3421 477.601
-48.1677 -9.90078 476.815
-26.5751 -44.8283 476.503
17.6576 8.93907 478.942
4.05909 -19.4986 478.941
1.33053 -5.60683 479.322
4.8063 -10.5714 479.218
18.5141 -6.78116 478.954
-47.2807 4.88258 477.004
19.0688 -11.1838 478.862
-34.3852 -11.7331 477.994
-47.1937 -11.9145 476.897
1.32508 -43.9193 477.357
-49.1687 -7.99799 476.779
-46.1175 -15.4621 476.902
2.56243 -42.4473 477.491
5.96238 -18.0123 479.01
-49.3232 1.75162 476.84
-26.2697 -42.0266 476.82
22.5421 1.71758 478.858
20.5609 -2.99683 478.942
22.6637 -7.00674 478.809
6.54173 -17.6406 479.027
-30.7701 -4.10883 478.391
18.9997 4.9196 478.997
5.30369 -9.08306 479.291
19.6113 -4.94089 478.982
17.8338 -8.04377 479.014
-0.406651 -38.273 477.884
0.831781 -34.99 478.136
-27.9303 -5.59807 478.573
20.9752 -2.04569 478.96
21.6743 7.79644 478.871
16.9172 7.94844 479.061
-0.902218 -35.9355 478.08
-40.7444 7.52886 477.639
-26.2387 -39.0769 477.117
-7.25156 -35.9655 478.029
-49.287 3.06951 476.887
-42.6975 -13.7452 477.342
-16.1257 -36.5319 477.78
-55.9142 -3.59622 476.162
-33.1129 -9.06279 478.219
-33.8583 3.32608 478.249
-32.006 -6.83453 478.339
-49.2311 -8.91321 476.844
-42.4539 -13.7464 477.383
-7.09353 -36.8241 478.001
22.6698 -0.887586 478.936
-2.14663 8.79826 479.387
-50.5512 -5.32998 476.771
-9.20754 -35.9569 478.035
-7.59062 -35.3187 478.111
-8.20072 -35.9584 478.055
-50.3663 -6.87388 476.775
-21.9972 3.33103 478.961
21.5521 -8.8277 478.912
-49.0466 3.89365 476.952
21.7619 2.83499 478.98
-53.7256 4.54779 476.444
21.8037 -0.0190899 478.989
20.5644 4.69642 479.021
-31.7615 -6.33952 478.391
18.5384 -8.83013 479.046
2.64316 -46.911 477.179
-47.8436 -14.7198 476.867
7.03954 -17.148 479.13
23.6601 4.07489 478.888
-48.4757 4.92402 477.009
-36.56 -12.5241 477.935
22.4205 -7.71103 478.909
20.6357 -9.77145 478.952
2.6231 -46.0751 477.271
-48.8438 4.55294 476.984
-51.2382 -4.98362 476.728
3.31821 -5.60841 479.456
20.8879 1.99128 479.043
-47.8537 -11.6339 476.968
-7.84328 -31.3749 478.412
-44.9232 7.27683 477.34
21.5157 -0.928992 479.021
-12.161 -36.0151 477.997
-32.2188 -24.0329 477.821
2.07562 12.7709 479.334
-24.9694 -2.74822 478.851
-26.1597 -41.1459 477.03
18.9543 -6.0298 479.104
7.78503 -16.5288 479.171
-16.1291 -36.1684 477.883
1.01753 -36.9279 478.099
19.8195 9.6602 479.017
-48.1573 -10.7967 476.982
20.0461 -3.91618 479.095
-26.2591 -42.9545 476.88
-34.0737 -22.4225 477.794
-21.0094 -0.143195 479.072
-10.2576 -35.9069 478.078
-40.498 -12.7642 477.652
-34.9628 -12.1569 478.106
-49.2065 9.86476 476.906
1.96799 -45.9939 477.326
-23.4363 -31.3442 477.944
-11.1813 -36.0577 478.057
-46.1393 -13.7389 477.126
-50.1715 1.0188 476.918
-17.1606 -36.2091 477.876
19.5754 6.18682 479.117
-51.0478 -6.03609 476.794
23.1674 -6.0989 478.961
19.6968 -10.5677 479.051
-0.796245 -36.9845 478.144
-0.159572 11.0351 479.446
-47.006 -10.8964 477.143
-37.2228 -12.5249 477.967
-48.117 5.86097 477.127
-12.2951 -36.5511 478.03
18.2129 -7.34322 479.19
1.99603 -47.0384 477.277
-30.4132 -2.12692 478.625
-48.407 -8.94195 477.063
1.24458 -38.1235 478.078
-26.1961 -49.2556 476.342
22.0542 7.17861 479.039
-35.4694 5.68014 478.255
-47.6227 -9.90732 477.13
-50.108 -7.83794 476.918
-26.0799 -48.1585 476.476
-53.9849 -3.59918 476.554
19.2065 -5.23295 479.202
-31.6467 6.30322 478.529
-32.1374 -9.06716 478.452
13.0011 13.0174 479.264
2.56036 -48.9638 477.106
18.4586 -11.5623 479.124
17.0558 -9.04046 479.232
-49.0121 -9.69906 477.017
-25.4107 -32.9452 477.819
-25.157 -34.7934 477.702
-45.6336 120.503 461.997
-51.2223 -1.7898 476.887
20.0755 3.2086 479.203
22.7998 5.93778 479.059
23.1718 4.94495 479.052
19.9505 -6.35 479.181
-50.2051 1.71099 477.002
-26.8232 -47.5461 476.524
-13.9055 -36.5521 478.044
24.1631 -2.99731 479.023
20.1134 -10.2382 479.12
-27.1403 -32.8174 477.76
-25.5645 -40.8784 477.226
-15.1029 -36.14 478.053
-50.4474 -6.03219 476.958
2.82237 -5.11336 479.623
-0.053011 -40.0502 477.986
-41.1231 -12.7661 477.726
-44.1828 -16.2188 477.356
-15.1436 -36.5517 478.038
-26.985 -43.9822 476.89
-51.2603 -1.00741 476.933
-6.312 -37.019 478.209
-50.4541 -0.8842 477.021
-30.1704 5.06545 478.707
-26.325 -43.936 476.942
-50.1443 -15.13 476.817
21.565 0.849873 479.199
-0.357345 -38.9839 478.1
-3.14157 7.8085 479.615
-52.3465 -3.66286 476.812
1.67375 -39.8699 478.029
-25.6644 -32.0865 477.934
-32.8843 -8.32428 478.498
4.56132 -10.3306 479.566
-13.1657 -36.0657 478.162
-17.1235 -36.6719 477.991
-14.167 -36.086 478.133
-51.0405 -0.060186 476.982
1.82864 -3.6229 479.695
-52.2459 -5.12484 476.831
1.32728 -38.6661 478.152
23.9194 2.83562 479.113
-53.7403 -11.0069 476.574
2.03435 -41.0736 477.956
-26.218 -3.70037 478.999
-22.759 -48.5543 476.726
2.31642 -43.2154 477.778
-46.9348 -12.9597 477.257
-25.8475 -3.36968 479.03
-0.737338 -37.8477 478.243
18.0951 6.18995 479.358
1.86416 -49.0321 477.224
20.204 -3.24742 479.306
1.57495 -39.2838 478.131
1.88707 -47.9648 477.34
-50.9624 -6.81523 476.986
24.0452 -0.267396 479.147
-26.2959 -45.004 476.912
-52.9639 -3.16876 476.809
-5.56062 -37.9036 478.221
-55.9503 -3.35168 476.47
-53.7584 0.227963 476.735
-52.7802 -4.58941 476.823
-53.9986 -5.82284 476.674
8.78275 -15.7923 479.425
1.70446 -6.23289 479.722
-30.4237 -3.24398 478.791
18.5894 10.6591 479.294
-3.13735 -28.0598 478.943
-28.6925 -6.5941 478.878
-18.0642 -36.2006 478.075
20.2025 9.16861 479.272
-54.0051 -1.87151 476.732
-25.6274 -42.1782 477.245
-7.96592 -36.5742 478.333
16.2353 8.79933 479.443
-52.1274 -1.99582 476.954
-7.8436 -35.3423 478.432
-6.01343 -37.8392 478.268
-18.5416 2.58916 479.442
-37.0557 -20.4484 477.94
21.9396 -8.08899 479.245
2.64453 -47.8011 477.427
-27.7741 -30.9777 478.018
0.159309 -40.9424 478.076
1.08332 1.3482 479.824
-49.8503 -8.67177 477.155
3.56864 9.30166 479.728
-47.8962 6.53558 477.391
-29.9324 -5.60152 478.868
-26.6486 -34.9258 477.82
-4.88263 6.31958 479.77
-7.35306 -31.1505 478.772
-49.0984 -15.9615 477.056
-52.2051 -2.81159 476.986
0.832757 -33.1298 478.697
-53.2643 -11.8751 476.734
-18.1675 -36.754 478.093
-26.8621 -42.4229 477.216
-41.8764 -12.7695 477.85
-31.898 -14.5246 478.578
3.56891 -9.09202 479.763
-28.4519 3.82769 479.004
-4.61956 -38.7996 478.27
-50.0456 0.166381 477.25
-4.27805 -39.9691 478.18
-1.27622 -29.4258 478.963
2.69914 7.81158 479.8
-26.9589 -43.0623 477.178
-18.8606 -36.9264 478.081
2.26821 -41.8524 478.043
-26.3275 -46.0553 476.937
1.32508 -49.1132 477.357
-33.391 7.79286 478.654
-3.64027 -5.11567 479.84
-13.1695 -36.572 478.304
-33.8514 -22.687 478.151
-32.6473 -10.5591 478.657
1.57332 -46.4196 477.635
-51.4928 -3.85042 477.104
-5.14016 -38.8752 478.286
-31.9093 -9.07277 478.748
-52.2982 -10.0268 476.934
-26.3235 -46.9872 476.866
0.682978 -42.1496 478.043
-49.8651 2.57758 477.297
-25.5876 -51.0004 476.503
-27.0982 -45.0745 477.018
-1.15175 -32.0232 478.84
-28.7005 -6.34775 479.011
-29.4438 4.57211 478.991
-0.656875 10.546 479.801
-51.9663 -5.72877 477.063
24.1775 -0.63994 479.309
4.56351 10.0487 479.796
-1.27873 -2.00828 479.918
1.93196 -49.8969 477.326
2.56513 -43.1112 477.994
-31.2988 -4.98157 478.894
5.55817 -9.34172 479.822
-28.7047 -2.12896 479.082
2.76235 -45.003 477.834
-33.115 -23.3523 478.248
-23.1596 -44.4128 477.344
1.16653 -2.29861 479.961
-54.0248 -3.35475 476.906
1.08049 -36.5924 478.571
-8.34185 -35.6009 478.575
-25.3983 -40.4763 477.587
-1.15116 -36.3463 478.596
0.902342 -43.0276 478.048
1.20138 -50.3478 477.338
3.23838 8.80768 479.895
0.884611 -5.06723 479.962
-4.99188 -39.5482 478.334
-25.1581 -39.2504 477.725
-0.905622 10.2992 479.883
-3.56609 -41.0259 478.225
-54.5059 -9.77679 476.791
0.71066 3.95995 479.982
1.7053 5.94913 479.961
-0.284118 1.97048 479.997
-27.0984 -46.0231 477.022
20.4633 -2.75226 479.563
-9.82909 -36.0949 478.55
-52.18 -13.3641 476.982
-0.65503 -38.6905 478.453
21.208 -1.38564 479.547
-54.9988 -8.54145 476.782
-10.4551 -32.1465 478.828
16.9868 10.0451 479.622
4.15017 -9.88231 479.915
-26.6366 -40.2303 477.605
-26.8533 -4.2404 479.266
-53.0561 -3.85037 477.082
1.08048 -37.5837 478.565
-51.4477 -14.108 477.067
3.19727 -8.72259 479.956
23.9355 -3.62094 479.435
-27.7207 3.33295 479.236
-51.4093 -2.80103 477.284
-30.8133 -1.75654 479.063
-50.8445 -12.0105 477.205
2.81114 -47.2936 477.714
2.76357 -44.032 478.043
-29.0826 4.20141 479.175
19.4732 -4.86517 479.656
-4.01824 -40.7867 478.325
0.986396 -44.076 478.051
-32.4214 0.725394 478.984
-51.9224 -1.21414 477.265
-1.15248 -30.0575 479.144
-34.4784 3.90885 478.832
-26.2535 -48.892 476.871
-27.3512 -4.73729 479.287
2.77488 -7.9528 480.02
2.12836 -7.008 480.038
-31.2489 -1.01195 479.08
4.81369 -10.7535 479.957
-26.638 -40.7275 477.631
-46.3289 7.28397 477.808
-10.8278 -32.8928 478.858
-3.21537 -41.8285 478.272
-5.86175 -38.5728 478.531
-26.9148 -34.083 478.152
-30.444 -6.72151 479.11
-31.9276 -6.09971 479.022
-1.27915 0.105371 480.124
-35.3854 5.19034 478.794
-26.6608 -35.974 478.039
1.20835 4.95603 480.113
1.90254 -50.7716 477.447
-6.44309 -36.1093 478.74
1.2016 -50.9758 477.429
-23.612 -54.2087 476.493
-27.0684 -48.0306 476.976
-18.7496 -36.3322 478.41
18.7315 -5.94326 479.754
-26.3348 -47.9784 477.029
-31.8709 -0.143209 479.102
-20.1031 -38.8539 478.177
22.4526 -7.10096 479.597
-46.8199 -11.0345 477.766
-5.367 -38.2089 478.63
-0.781743 1.10052 480.183
-27.1035 -46.9867 477.111
2.06889 -48.1163 477.773
1.57421 -46.8172 477.904
-15.286 -35.8519 478.616
-49.8922 -6.5759 477.557
0.253869 -41.6191 478.398
-50.8766 0.599482 477.506
1.57247 -52.0832 477.376
-33.9118 2.959 479.004
-53.07 -8.54909 477.208
-33.2219 1.99142 479.077
-54.0527 -5.33424 477.152
1.33296 -5.86586 480.196
0.0888417 -4.12435 480.22
-47.0371 7.20254 477.878
2.56716 -42.2779 478.373
-14.4185 -36.5971 478.632
-1.65277 -1.01445 480.243
1.12448 -45.0042 478.133
0.337714 11.548 480.115
-50.6368 1.34189 477.578
-19.2441 -37.817 478.38
2.8839 -46.1044 478.032
-20.8028 -40.1915 478.125
-32.1837 6.68371 479.138
-3.87761 -41.5409 478.449
-49.8992 -6.32936 477.623
-50.6215 -12.2636 477.434
-14.0492 -35.86 478.724
-34.2784 -10.9371 478.925
2.11841 -48.9088 477.777
1.82448 -40.0664 478.602
18.7368 4.95359 479.891
-50.3779 -12.5119 477.469
3.8207 9.80776 480.168
17.5775 6.81878 479.918
-20.3695 -39.8558 478.2
0.879943 -52.9232 477.368
16.6872 7.93808 479.938
-26.2151 -49.9233 476.974
-11.0756 -35.621 478.846
-2.63805 -42.2828 478.429
-1.30119 -34.9398 479.028
0.213427 3.09147 480.293
-31.9289 -13.9181 479.042
-26.6524 -40.0891 477.888
0.880115 -52.0938 477.473
-4.26511 6.94803 480.239
-1.40079 -33.162 479.163
-6.11401 -36.7392 478.869
-4.54094 -39.2469 478.688
19.7315 -4.12162 479.893
-33.9742 -10.1324 479.009
3.81864 -19.538 479.908
-0.408715 -3.37868 480.309
-27.9831 -5.36022 479.476
2.24553 7.07263 480.266
20.7254 -1.96684 479.879
-43.2708 -12.7791 478.211
-32.7477 1.16025 479.219
-25.6576 -42.0628 477.807
-0.781998 -2.88118 480.332
21.4706 0.602441 479.862
-0.986377 -38.0185 478.837
-21.2313 -0.0191119 479.877
2.71332 -48.1803 477.918
17.7446 -7.7902 479.957
-23.7233 -31.3963 478.738
3.32291 -14.3231 480.135
20.044 2.96481 479.934
-2.26623 -43.0263 478.428
-50.7707 -1.62772 477.674
0.170928 -53.0375 477.432
-48.6864 5.67549 477.864
-32.8077 -7.83982 479.189
-0.655424 -39.582 478.741
19.1098 10.175 479.891
-20.1849 -51.5677 477.184
-5.40998 -39.0469 478.77
-48.361 6.21259 477.91
-31.8129 -13.053 479.162
18.0779 -7.06553 480.003
1.96989 -50.1945 477.762
-1.33887 -33.9713 479.199
20.1077 -3.12765 479.973
2.19673 -40.8159 478.668
-44.1379 -12.7791 478.209
0.337909 -4.62375 480.391
-49.4103 -13.5075 477.682
-2.64466 -27.4786 479.628
-4.33468 -39.9537 478.738
-48.9375 4.98613 477.898
-1.84477 -43.917 478.409
17.4981 9.55589 480.013
18.059 5.95023 480.051
-21.545 0.602542 479.944
17.0021 -8.84877 480.052
-26.3878 -45.1771 477.581
-7.35562 -37.1175 478.946
-33.3054 -8.83313 479.205
-26.9837 -48.9712 477.178
20.6062 2.09459 479.996
0.0884609 -53.8196 477.42
-20.4365 -51.0841 477.285
21.5965 7.68886 479.9
-6.41226 -37.9576 478.903
12.7751 13.0401 480.102
-52.6138 -1.87474 477.556
1.1789 -45.9345 478.253
6.9296 -17.0586 480.107
-31.0445 -4.11779 479.439
21.1656 1.16206 479.994
-25.9055 -43.2187 477.814
-2.89333 -27.7288 479.656
-1.15222 -37.0006 479.038
-49.3716 4.12844 477.906
-32.1795 -17.2702 479.077
21.5259 0.055532 479.987
21.228 -0.889557 480
-16.0382 -35.8704 478.863
-53.5944 0.352055 477.474
-49.8026 0.228644 477.885
-34.0495 8.17408 479.196
0.583213 -53.8228 477.45
-31.4567 5.81806 479.41
-51.635 -6.3298 477.657
21.1015 8.18692 479.949
-46.7168 -15.0017 477.978
-25.7641 -3.12645 479.791
-48.4439 -11.1618 477.914
-9.09544 -35.6389 479.087
-21.712 -42.2577 478.144
2.6477 -49.0128 477.986
-50.3288 -8.22942 477.786
-2.39117 -42.3005 478.63
-48.9414 -7.90206 477.938
18.7414 -11.2521 480.01
19.1183 -5.11836 480.105
-26.2368 -50.939 477.084
1.75954 -51.0462 477.798
21.1026 -9.0958 479.973
17.1717 7.2369 480.162
1.57758 -39.1011 478.929
-0.653458 -55.5377 477.305
-0.282597 -54.8058 477.393
-48.4528 -8.68705 478.002
-20.9356 -50.724 477.387
-21.0691 -41.0334 478.312
-13.0657 -35.6351 479.035
-51.646 -0.390336 477.758
-51.1543 -4.59871 477.789
-17.4036 -35.8721 478.885
-26.0296 -43.9618 477.819
19.4926 3.71224 480.134
-25.2313 -51.9562 477.062
-31.709 -5.36015 479.47
-31.7009 -12.1886 479.348
21.9738 7.06874 479.996
-33.683 -9.33118 479.28
-36.0333 5.93921 479.164
-3.26015 -41.074 478.786
19.1617 4.2515 480.155
-28.3682 -5.73539 479.687
-34.9146 -11.811 479.144
-1.15082 -45.0522 478.443
23.051 4.99614 479.985
2.81626 -43.5364 478.584
18.1234 10.9258 480.107
-3.63933 -28.4778 479.715
-27.2558 2.96396 479.792
-25.4045 -50.9912 477.187
-32.1854 -17.9355 479.166
-0.653746 -54.2014 477.516
-31.9323 -20.2495 479.094
-26.6732 -38.9228 478.262
-21.0636 -50.2399 477.487
-1.39897 -44.2763 478.542
21.4784 -8.59978 480.038
-5.99155 -38.7343 478.995
-23.5115 -54.1383 476.959
-19.5029 -38.5823 478.649
-32.8236 7.18437 479.422
-49.9202 -13.0164 477.825
1.20375 -47.348 478.263
-8.22918 -35.4015 479.233
-49.2044 1.34332 478.086
16.0144 8.81436 480.266
21.9763 -7.8539 480.05
-47.3486 -12.9003 478.106
20.7347 8.56255 480.095
-1.64693 -44.5249 478.549
-31.9327 -20.9943 479.099
-50.0448 2.93509 478.001
0.898812 -51.0601 477.903
3.57236 -19.3021 480.227
1.17262 -48.0869 478.219
1.14993 -49.9955 478.023
0.988787 -51.9512 477.817
19.617 9.68278 480.136
-3.22924 -42.035 478.782
-25.2101 -52.8913 477.054
-26.6812 -37.8192 478.406
-49.2457 -10.0988 478.005
-26.9156 -49.8973 477.287
-3.64581 7.57506 480.57
-32.703 -7.34758 479.475
-5.02328 -39.9471 478.956
-0.778956 -46.0633 478.433
-26.0331 -51.8912 477.127
-1.02479 -55.0636 477.483
-49.6884 9.763 477.976
-34.8071 4.20321 479.371
-3.27236 7.94863 480.575
-3.63347 -40.343 478.943
22.6003 6.07504 480.094
-2.2263 -42.9303 478.739
-18.8938 -36.2472 478.925
-19.2591 -38.3427 478.753
-1.8904 -55.9208 477.409
-51.4159 0.228645 477.92
5.06593 -18.5582 480.293
23.5528 -4.86959 480.076
24.0917 -0.765352 480.074
-51.0487 0.971612 477.959
-50.078 -8.95201 477.979
6.31048 -17.5637 480.317
-32.1973 -15.7897 479.343
1.63609 -51.8904 477.879
-46.74 -13.7703 478.215
-24.2573 -53.9008 477.044
-2.06905 -43.868 478.685
-53.4546 -3.93777 477.699
-1.64333 -55.313 477.501
-0.158998 -54.0112 477.657
-6.86981 -30.7119 479.671
20.9892 4.33509 480.227
-18.5204 -37.3614 478.893
1.33435 -2.63424 480.696
-25.2798 -2.7135 480.033
-20.0043 -38.0966 478.778
-0.407637 -39.9793 479.043
-51.9093 -0.885571 477.903
-25.4355 -41.0311 478.285
-50.4408 2.33403 478.066
24.1353 -1.96789 480.117
-48.0982 -11.9109 478.169
-18.1124 -35.9665 479.042
-21.3124 -41.747 478.444
-51.3184 -7.12598 477.935
-29.4938 -4.86671 479.805
-2.39788 -27.001 479.972
-24.4694 -53.1316 477.166
-2.65032 8.57255 480.655
-24.7855 -2.3822 480.096
-28.8739 -6.73144 479.83
-28.8742 -6.23442 479.836
1.58344 -6.37021 480.706
23.9711 1.97087 480.149
-52.1541 -6.02314 477.877
20.1194 9.06279 480.248
3.57551 -9.35787 480.651
-4.3784 -40.9673 478.988
-32.1957 -18.6448 479.319
-31.228 5.57318 479.713
23.4747 3.96137 480.173
-50.9114 -14.7496 477.834
-31.8466 6.19403 479.672
-0.0530269 -52.9829 477.842
23.9723 -0.143524 480.173
-47.9896 6.79617 478.323
17.2631 -8.35729 480.395
-2.09647 -56.7865 477.409
-0.904378 -38.6287 479.224
-21.9703 -42.7118 478.374
-2.93366 -42.9067 478.852
22.9784 -6.03189 480.201
-2.15246 9.07145 480.7
-27.0004 -41.85 478.205
24.035 -3.00455 480.183
-34.686 -11.1967 479.414
-20.5006 -38.965 478.781
-12.08 -35.6567 479.326
1.009 -48.9977 478.299
-21.1907 -56.9784 476.945
-1.40247 -31.9592 479.74
-47.7362 -12.5328 478.266
23.7254 3.09092 480.211
-51.4295 -3.61045 478.047
-25.8731 -52.8075 477.216
-1.02705 -46.879 478.535
19.5001 -10.5957 480.319
-49.708 -9.68112 478.165
-4.38694 -28.9889 479.95
-3.12724 -57.1597 477.428
-53.3303 -2.9901 477.879
-48.8248 -10.8971 478.25
-18.2145 -54.8042 477.379
0.862466 -52.9799 477.935
5.31987 -8.86168 480.753
-27.4053 -43.9842 478.064
-45.286 -12.7884 478.56
-27.263 -42.9045 478.176
-25.0476 -53.8761 477.191
0.836282 12.0607 480.723
-24.0306 -54.8545 477.145
-30.7426 -3.0028 479.896
-20.4987 -40.5737 478.736
-0.258801 -40.9559 479.145
-26.9284 -40.9164 478.393
-31.3626 -1.26221 479.871
-1.65501 -0.268259 480.896
19.8761 -10.2238 480.384
-34.4475 -10.5788 479.552
-26.0293 -47.7986 477.814
-24.9637 -38.0938 478.743
-32.2266 6.56828 479.779
-50.7879 1.67409 478.224
-22.1105 -56.1587 477.12
-19.2747 -36.6358 479.139
20.4987 -9.60173 480.392
-30.1661 4.82993 479.955
-3.43631 -57.9618 477.413
-21.4831 -42.5426 478.564
-50.8766 -7.89395 478.171
-1.40597 0.230094 480.936
-24.6772 -47.0328 477.999
-26.6958 -38.3357 478.667
24.2292 0.851816 480.333
-28.0208 3.33911 480.123
2.8187 -43.2019 479
2.7051 -8.24102 480.877
23.7325 -3.87676 480.354
-23.2372 -54.9537 477.246
0.116024 -52.1649 478.125
-1.402 -36.4211 479.58
-1.32304 -2.30345 480.959
-1.12684 -45.836 478.777
2.66372 8.07853 480.894
-31.4898 -4.74344 479.915
-4.61067 -58.758 477.349
-1.02555 -54.9618 477.828
-21.3635 -42.0555 478.663
0.712053 -5.2521 480.954
-49.7315 3.69886 478.391
-20.9507 -39.9394 478.864
-1.65529 -1.76365 480.978
-1.02777 -44.9285 478.888
-30.9478 -2.03346 479.991
-21.1627 -40.7853 478.793
-20.4291 -57.4928 477.112
-53.1561 -8.19143 477.982
-6.86933 -35.6799 479.637
-23.8866 -47.7962 478.037
-6.09489 -58.7611 477.374
-27.0324 -4.1247 480.24
3.57743 9.69837 480.908
-29.182 4.08548 480.126
17.5219 6.58042 480.667
-0.409221 11.0686 480.904
-1.27623 -44.0711 479.008
-0.160069 -4.04836 481.022
-27.9424 -5.1195 480.2
-49.4662 -16.0005 478.222
-4.24081 -58.2791 477.479
4.32491 -10.6087 480.907
-23.1919 -48.6852 478.011
-2.88595 -49.9676 478.433
-25.7158 -50.0806 477.739
-53.126 -4.8906 478.082
-51.7777 -6.66751 478.212
-23.0065 -55.8771 477.248
-34.7088 8.55602 479.729
-25.4081 -50.1458 477.77
-1.03246 0.977905 481.065
-2.16193 -56.0438 477.787
-22.0566 -56.9357 477.178
-1.24467 -46.8413 478.784
-24.0909 -47.1145 478.158
-0.0354808 2.97188 481.068
18.5157 10.5637 480.606
-4.90844 -58.8192 477.445
2.81632 -48.7447 478.596
16.279 8.3249 480.735
2.33213 7.58214 481.019
-5.37762 -37.6633 479.578
0.587633 4.2181 481.067
1.91682 6.83474 481.037
-24.5553 -2.13507 480.458
-35.3332 4.70388 479.77
-27.4144 -44.7425 478.224
-0.194437 -54.9055 477.953
2.5719 -41.9834 479.256
-1.81396 -44.8566 479.002
-0.90788 -2.96885 481.095
-23.3354 -45.1321 478.415
-0.40939 2.22428 481.102
-27.5335 -4.62289 480.301
1.08606 -5.81427 481.077
-4.85998 -58.2872 477.545
-33.3575 1.72161 479.956
0.587692 -1.1409 481.116
-4.00857 -41.7379 479.288
-0.658674 1.72579 481.115
-19.4435 -58.2439 477.191
-25.9022 -50.639 477.752
-7.95006 -59.3805 477.384
1.15195 -46.7505 478.851
-1.17191 -55.9415 477.874
3.07993 9.02815 481.046
7.31514 12.5641 480.923
-2.27431 -56.9405 477.758
12.5448 13.0593 480.808
-3.26452 -56.8961 477.763
0.338432 3.72013 481.136
-5.97181 -59.5086 477.419
-0.860988 -54.0619 478.106
-32.2318 -14.5634 479.857
-23.4595 -45.628 478.417
-25.6404 -53.5795 477.486
0.92007 4.84191 481.143
-24.7705 -54.684 477.409
-33.7323 2.34339 479.982
-11.0169 -33.3779 479.887
-2.64218 -43.7147 479.18
-32.4925 -6.7343 480.035
-1.39692 -56.5901 477.84
20.5104 8.57277 480.668
-32.31 -0.0192084 480.096
-19.9893 -58.1752 477.236
-25.7914 -48.9312 477.996
-27.1879 -41.8018 478.598
17.0268 11.5632 480.749
-21.9509 -41.9895 478.852
-9.39199 -60.0756 477.338
-0.03554 -10.8615 481.074
-13.5802 -35.683 479.68
-23.3916 -47.2892 478.296
-13.1394 -60.4713 477.208
-52.9416 -1.96028 478.281
1.83416 -6.95776 481.153
-31.3825 2.59312 480.176
-23.7549 -55.7441 477.379
18.6068 -5.8734 480.814
-4.24279 -57.8815 477.697
-3.25293 -57.7518 477.721
-0.783286 10.699 481.091
-31.7532 -5.11885 480.138
-27.661 -46.1033 478.204
20.2664 2.34732 480.786
0.998624 -46.0568 479.009
-5.06324 -4.13269 481.179
-4.02436 -5.00536 481.181
3.0805 -8.86875 481.141
-26.9474 -40.9453 478.73
-50.0044 -0.143063 478.631
0.336599 -50.9693 478.529
-32.1255 -5.98929 480.126
0.836841 -13.6025 481.044
-26.9513 -40.2069 478.8
1.33576 5.71526 481.207
3.89062 -9.99032 481.124
19.6039 -3.88061 480.832
-53.681 0.104838 478.245
1.5851 6.21395 481.211
0.587672 -12.3578 481.099
-31.7579 -0.765612 480.21
-20.7669 -39.3718 479.203
-1.76929 -55.0118 478.109
-1.40424 -29.7595 480.344
-25.4636 -41.3246 478.815
23.9972 0.976992 480.671
-22.8645 -56.6347 477.38
7.5663 12.5674 481.049
18.6514 4.83935 480.892
-8.19922 -59.7645 477.487
0.712251 -12.981 481.11
-21.8726 -57.6172 477.324
-34.1487 8.06364 480.006
-21.0662 -57.8996 477.331
-35.7186 5.20276 479.939
-10.9189 -60.003 477.416
-33.1182 -7.97873 480.092
-18.2119 -59.1243 477.312
-32.9994 1.01756 480.172
-18.548 -35.9261 479.606
-34.2366 3.00714 480.079
-9.99157 -60.1899 477.428
-3.88725 -39.9046 479.638
-52.7055 -5.5959 478.388
-1.89635 -48.0322 478.909
-23.8769 -46.1734 478.503
-8.9872 -35.4529 479.929
-1.90583 -1.01672 481.316
23.5022 3.59245 480.735
-16.2676 -60.1615 477.273
-27.672 -45.254 478.393
-11.1116 -60.7712 477.344
17.7779 -11.8532 480.854
2.33331 -7.74904 481.261
-23.2447 -47.9781 478.369
-3.63036 -51.7136 478.533
22.5072 -6.74456 480.763
-25.4663 -41.577 478.865
0.832947 -49.0666 478.833
-48.2678 -16.7579 478.623
18.2805 5.33856 480.967
-31.0183 5.33132 480.315
-16.9777 -59.3176 477.375
24.0009 -1.8872 480.745
-14.2561 -60.2826 477.345
-15.2864 -60.1169 477.339
4.577 -10.8648 481.214
-35.2201 -11.8303 479.922
-1.40427 -31.0667 480.356
-12.1559 -60.2511 477.422
2.56921 -50.0011 478.754
-4.77345 6.71375 481.296
-33.4936 -8.60134 480.124
-19.1204 -59.0263 477.353
-2.55259 -57.6698 477.896
23.5041 -4.62744 480.774
-14.1316 -60.7327 477.319
17.5339 -7.74468 480.997
-21.7139 -50.9328 478.186
-6.25167 -58.9561 477.721
-8.5704 -60.5075 477.493
2.07714 -40.4056 479.685
6.07062 -17.5898 481.03
-22.0138 -50.3442 478.244
17.1615 6.95938 481.037
-19.1707 -36.3016 479.644
19.0291 -5.00341 480.995
20.6057 -1.8881 480.954
-1.40041 -47.6726 479.035
17.9086 -6.99746 481.02
16.6636 7.70738 481.054
-9.55935 -60.7508 477.461
-4.16947 -58.6653 477.803
-17.0176 -60.1168 477.339
20.0255 -3.00974 480.986
16.7877 -8.92925 481.037
0.213868 -4.75804 481.391
-5.37976 -58.9662 477.761
-24.7991 -52.0229 477.96
-3.64587 -28.28 480.578
-19.3551 -53.3964 478.061
15.0429 12.3177 481.03
-2.64446 -41.8886 479.592
20.6069 1.84981 480.981
1.08642 -14.9365 481.194
17.8477 5.9627 481.059
-23.417 -56.3084 477.55
-47.5512 -13.1698 478.899
-21.1009 -50.3286 478.331
-20.1121 -58.7656 477.411
-20.449 -57.3013 477.577
3.0675 -47.3064 479.097
19.0277 10.073 480.955
15.8756 8.82967 481.094
-31.9251 -12.0867 480.23
-4.09093 -57.1386 478.027
-22.4141 -42.6668 479.03
1.33597 12.5735 481.282
-18.0386 -59.6828 477.399
-12.28 -60.8305 477.44
0.089183 11.577 481.32
-53.7035 -2.8698 478.446
-2.33038 -49.7045 478.884
-1.15779 10.3308 481.354
22.5969 5.83618 480.904
19.8417 2.97178 481.059
-9.99309 -60.9414 477.501
-31.1517 -3.87758 480.454
-0.656879 -40.167 479.804
-53.8278 -3.86138 478.449
-21.1818 -51.1301 478.293
-1.4034 -37.0793 480.057
-23.2809 -44.9476 478.825
-26.6571 -51.6529 477.972
21.0211 -8.98978 480.953
-32.0101 -12.8339 480.26
24.0086 0.105488 480.899
-20.395 -52.0542 478.245
-2.1449 -48.8776 479.014
-24.263 -52.9737 477.971
-27.6717 -47.2365 478.389
-2.6412 -49.0341 479.001
-26.4084 -52.1464 477.955
-21.7619 -41.3616 479.243
-14.9393 -60.6867 477.444
0.585631 -44.8552 479.429
1.82487 -51.9803 478.706
-15.9899 -60.663 477.42
-27.6887 -44.2894 478.683
-24.0296 -46.5816 478.664
-5.19472 -58.0113 477.991
23.2634 4.21692 480.946
-24.4153 -55.3382 477.719
3.33189 9.58415 481.432
21.0265 -1.14068 481.079
-20.4819 -51.4455 478.346
3.06983 -44.6097 479.461
21.8948 6.95887 480.993
-6.54255 -38.3571 479.968
22.185 -7.28758 480.979
-21.5456 0.00577956 481.067
-20.8673 -56.9873 477.711
-3.07067 -56.3272 478.235
-34.9344 3.96223 480.267
-28.551 -5.62265 480.674
-8.21469 -59.9979 477.733
-12.8596 -60.8419 477.53
0.0892087 -10.1219 481.459
-16.7332 -60.5029 477.457
-36.7274 6.32422 480.123
-20.5346 -38.6571 479.576
-18.78 -58.7279 477.607
19.2852 -4.38191 481.166
-5.52315 -59.6432 477.837
-22.0271 -55.9265 477.811
-32.2609 -14.0788 480.29
-32.3325 -18.966 480.12
21.0283 0.977954 481.121
-7.21409 -59.9255 477.784
23.6642 3.04618 480.991
24.0541 -1.099 480.981
-8.20267 -60.5939 477.687
21.0255 8.08133 481.058
-6.34814 -59.8058 477.817
21.2775 -0.0191087 481.118
-2.93067 -50.0039 478.979
-4.40147 7.09107 481.52
-4.51005 -41.2852 479.799
-47.1563 -13.63 479.088
-29.0519 -0.890893 480.721
-6.93759 -37.8877 480.059
19.1621 3.96997 481.205
21.7105 -7.99479 481.049
-49.4264 4.94493 479.037
17.9134 10.9496 481.148
20.1542 -9.86482 481.084
-27.4196 -49.0878 478.315
-34.3751 -10.2216 480.275
19.5327 9.57797 481.122
21.5248 7.58301 481.074
-1.40519 -30.1533 480.67
-26.8528 -51.0529 478.151
-51.0252 -2.37628 478.901
0.585044 -50.6416 478.948
0.734048 -50.0771 479.007
-11.2458 -60.7245 477.644
-7.18111 -59.0073 477.939
0.837106 -20.2136 481.197
-25.0613 -51.186 478.238
-1.73232 -47.2434 479.298
-27.6812 -46.7567 478.552
-20.9231 -51.97 478.358
-10.2753 -60.6858 477.68
4.32783 -19.0931 481.231
-1.65366 -32.8814 480.504
-6.07885 -39.0894 480.005
-9.11241 -59.9074 477.805
17.294 -8.1229 481.255
22.8952 4.96586 481.066
-2.39595 -44.373 479.587
18.2914 -6.25274 481.254
23.6421 -4.13173 481.049
-9.19335 -60.6912 477.723
-32.7719 -7.11412 480.485
20.0326 8.99682 481.154
-0.905915 -39.4405 480.039
-21.849 0.604072 481.162
-5.33226 -40.081 479.965
22.9376 -5.87671 481.083
-7.58548 -60.5447 477.787
7.19661 -16.7277 481.324
-34.8731 -11.0925 480.281
-17.155 -59.1338 477.722
-23.3687 -43.9554 479.094
-50.4502 -9.07639 478.939
-1.65352 -34.1231 480.462
-4.3881 -39.1933 480.058
-3.02525 -27.6745 480.872
-26.2004 -3.19633 480.954
-0.407394 -52.9779 478.756
2.32231 -50.7704 478.992
-10.3092 -60.0121 477.818
1.08668 -18.847 481.313
-23.2716 -45.9422 478.924
-49.0558 -11.0642 479.054
-33.1457 7.20039 480.491
23.8517 -3.21794 481.086
-27.1707 -50.2011 478.296
-48.3273 6.80891 479.214
-17.1854 -59.8592 477.65
-0.408399 -41.1728 479.938
-19.1783 -53.9787 478.283
-27.6971 -44.6749 478.828
-24.0831 -45.9434 478.905
-8.12393 -35.2352 480.35
-1.40535 -30.7793 480.724
-26.085 -52.9856 478.078
-48.945 5.9395 479.184
-49.9301 3.95267 479.107
-16.0739 -59.8672 477.715
-3.38589 -50.809 479.022
-21.0349 -57.902 477.768
-23.444 -54.1441 478.102
20.2879 -2.38816 481.297
-24.9608 -2.26239 481.079
-20.7388 -51.2199 478.554
-20.1114 -53.1215 478.374
-33.89 -9.22956 480.454
0.28726 -51.072 479.028
-0.159435 -51.882 478.944
-12.1229 -60.7598 477.748
-36.2471 5.82948 480.351
-23.7392 -44.9861 479.06
22.2782 6.33837 481.197
-52.3851 -6.22166 478.858
-0.159736 -41.7946 479.938
-31.5407 5.58454 480.691
23.2743 -5.00513 481.172
-11.1459 -60.0909 477.871
-23.3184 -46.8333 478.914
-27.3235 2.76361 480.985
-53.836 -2.9708 478.743
1.08693 -18.2278 481.424
1.08713 -15.7364 481.513
-6.15498 -58.3165 478.191
-13.2778 -60.8215 477.739
-20.0518 -37.3167 479.915
-29.0608 -6.12323 480.867
-22.8648 -55.1318 478.076
-3.14432 -40.9325 480.035
5.33017 -8.62928 481.684
-12.1143 -60.096 477.876
-14.1437 -60.8464 477.726
-1.27968 -38.0921 480.286
-21.4588 -56.2403 478.023
-18.2494 -55.0744 478.293
-47.9161 -12.8067 479.24
6.32531 -17.3556 481.446
-48.8209 -11.5638 479.184
-1.65375 -34.9995 480.531
-48.4519 -11.937 479.218
5.07796 -18.3528 481.433
-27.6861 -47.757 478.637
-24.9691 -47.1576 478.846
-15.9996 -60.6589 477.712
-50.8825 2.1737 479.115
2.58521 -8.38062 481.737
23.7757 2.10007 481.23
4.70385 -18.7271 481.435
-0.160327 -10.3769 481.714
-19.0702 -59.6485 477.747
-50.0565 9.78654 479.129
-25.4262 -54.1452 478.111
-24.1741 -48.0735 478.825
-3.6342 -51.7683 479.04
-32.0419 6.08327 480.738
-1.65416 -33.9288 480.647
-1.65442 -32.8964 480.723
-0.409534 -23.8325 481.272
0.588567 -5.38655 481.832
-49.9371 -9.82586 479.175
-4.03757 -51.9857 479.042
-3.28063 8.21838 481.791
-32.5237 -16.3255 480.497
-15.1766 -60.8323 477.777
3.06997 -47.8414 479.483
-18.0884 -60.0135 477.781
-50.3973 3.08463 479.222
-19.554 -38.932 479.902
-27.4703 -42.7234 479.2
-51.463 0.932635 479.127
-29.1908 -6.74724 480.955
-20.1474 -57.9148 477.973
-4.76166 -41.0639 480.114
-28.0757 3.17949 481.063
-32.2686 -19.8901 480.405
-16.5028 -59.3268 477.947
-51.9094 -6.96869 479.046
-3.30957 -43.1638 479.956
-50.8026 -8.58374 479.142
-0.65687 -45.0139 479.797
-32.5242 -17.0726 480.503
-3.7802 7.71976 481.831
-1.90779 9.59165 481.809
-32.5223 -17.9844 480.475
-1.65405 -35.2548 480.618
-2.28232 9.21737 481.82
1.08742 -16.2396 481.641
-20.0154 -59.167 477.857
-24.086 -55.9227 478.06
-2.65304 -27.1917 481.148
-27.4354 -49.488 478.59
2.5858 8.34415 481.847
-15.0788 -59.9766 477.946
-24.7323 -46.3103 479.064
-25.3444 1.85094 481.262
-22.9932 -57.0051 477.998
-13.2022 -60.1573 477.988
-49.575 -10.3243 479.274
-31.0571 5.21342 480.915
-4.202 -41.933 480.1
-14.0897 -59.9522 477.998
-18.1138 -58.9907 477.984
-1.7763 -43.1687 480.011
-15.5275 -56.163 478.419
-31.5558 -1.38961 480.922
-18.8329 -55.09 478.429
-35.5208 4.58771 480.626
-53.5124 -4.85808 478.955
-8.26525 -59.2213 478.238
-52.0449 -0.143268 479.151
-1.78353 -0.0190896 481.967
-24.8845 -55.0439 478.172
-27.2103 -4.00809 481.187
-28.1791 -5.02967 481.126
-4.15529 7.34639 481.903
-53.8422 -4.03073 478.945
-18.2527 -55.9107 478.381
-1.65424 -35.5078 480.672
-0.0771816 -11.129 481.857
-32.5279 -17.8215 480.558
-22.9936 -48.0453 479.039
-20.9107 -58.6832 477.949
-16.1058 -56.4106 478.417
-3.64212 -42.8022 480.083
-29.1582 3.84448 481.103
-32.5337 -15.8325 480.643
-12.0604 -56.4255 478.543
-0.326895 -4.13979 481.992
-20.8996 -39.0866 479.969
-1.28422 0.979847 482.011
-23.4851 -49.0278 478.939
-24.7285 -47.9165 478.991
-51.3067 -7.92294 479.213
-21.4979 -50.3879 478.895
-17.2439 -60.5586 477.897
-19.0474 -58.2944 478.111
-52.4192 -0.888067 479.169
-32.5331 -16.8283 480.635
1.75407 -7.13622 481.978
-5.05488 -54.1061 478.962
0.834547 -47.12 479.726
-2.7823 8.72047 481.949
-2.09921 -45.0505 479.921
-2.72961 -44.0808 480.011
0.588643 12.0901 481.894
-1.15206 -54.0396 479.007
-32.2761 -20.8075 480.516
-25.5991 -2.63788 481.361
-29.823 4.34302 481.106
-22.1191 -50.2659 478.913
-21.5409 -40.6683 479.853
-50.8263 2.58875 479.365
-21.3059 -52.1103 478.761
-17.0142 -56.7807 478.402
-20.1282 -52.4839 478.775
1.0877 -16.9926 481.763
-4.31764 -52.9164 479.136
-32.5529 6.58399 480.927
1.08767 -17.7409 481.75
-33.5487 1.60044 480.914
1.78753 7.04862 482.033
-16.7693 -56.419 478.488
-20.1273 -53.0084 478.751
-0.784903 1.97908 482.094
-11.3703 -33.2764 480.816
19.3025 -10.6239 481.597
-34.2904 6.83182 480.832
-16.0258 -56.6674 478.492
-31.0688 -3.01034 481.097
-30.324 4.67575 481.145
0.588702 -13.1287 481.943
-1.09721 -3.01668 482.113
-31.9374 -5.00377 481.039
-31.4418 -4.00722 481.084
0.788635 5.05135 482.101
-25.6903 -53.9318 478.416
-24.7127 -51.9779 478.685
-33.8828 2.09886 480.941
-31.3205 -2.01336 481.134
-0.285371 2.97856 482.15
-2.14742 -49.8384 479.576
-3.13693 -56.1176 478.877
-1.78425 -2.0178 482.158
0.214239 3.97777 482.149
-22.0098 -58.0152 478.157
16.8122 11.587 481.738
-3.88549 -51.3126 479.42
-52.9229 -5.72998 479.234
-1.65625 -29.816 481.256
-1.95883 -54.9943 479.035
-0.656136 -53.0337 479.261
-2.15581 -26.5852 481.45
-4.65706 -4.6407 482.152
2.27506 7.97443 482.13
-21.302 -39.9902 480.071
-33.2471 0.977917 481.056
0.963552 -6.0147 482.167
-48.3761 -8.59369 479.697
-6.14053 -55.2134 478.998
-1.65588 -31.9283 481.15
4.70982 -11.1336 482.06
-34.1319 7.83011 480.939
4.21054 -10.7593 482.075
-25.307 -31.0172 480.551
-32.5502 -14.9684 480.887
-22.1236 0.604764 481.713
-53.5444 0.850085 479.241
-5.15709 -4.26615 482.179
-22.1237 -51.0205 479.01
2.96191 -9.01192 482.135
0.586038 -48.7392 479.762
-5.44624 -54.9721 479.057
-2.39307 -55.612 479.011
-19.4306 -53.1599 478.906
-48.3713 -12.3205 479.649
-53.5456 -2.62632 479.252
-4.54215 -57.2019 478.816
-32.4436 -0.268444 481.153
3.83681 -6.3899 482.192
-4.46329 -53.6926 479.231
-31.9888 -0.891769 481.188
-34.4282 2.84683 481.017
7.57999 -16.3739 481.92
-6.40641 -3.39201 482.204
3.75314 -10.1363 482.138
-32.8168 0.230022 481.143
17.0055 6.972 481.913
17.7536 -7.01006 481.887
-1.65214 -46.0337 480.061
-7.15595 -2.89235 482.206
-7.15604 2.10444 482.211
18.5649 -5.63679 481.883
-11.1985 -56.7036 478.798
18.5654 4.72458 481.895
19.8915 -10.0451 481.762
0.776152 -14.0063 482.076
19.5633 -3.63937 481.876
-1.65966 -5.89092 482.248
-0.660259 -3.76737 482.273
-6.30645 -55.9627 478.989
-7.23921 -56.0663 478.964
-9.19173 -56.1235 478.929
2.73759 8.99993 482.202
-19.1086 -54.1374 478.865
-8.22432 -56.1014 478.952
0.586534 -45.2976 480.168
1.21376 5.97769 482.268
-35.2947 8.66065 480.94
-18.5194 -54.4788 478.867
-12.204 -56.1938 478.873
-23.9147 -48.6466 479.258
0.588609 -20.866 481.867
3.21235 9.7246 482.213
-4.15851 -5.14167 482.278
-11.2011 -56.2203 478.908
-6.98535 -55.4951 479.073
18.3138 -11.3783 481.846
0.276691 -12.0108 482.178
-28.0984 -7.3779 481.453
-33.4123 -8.02055 481.103
-32.4468 -6.00279 481.202
-35.4155 -11.7295 480.887
-33.8912 -8.86734 481.059
-12.1917 -56.7077 478.833
-17.1891 -56.8125 478.67
-48.8847 6.5687 479.81
-34.8059 3.34571 481.072
-2.15977 -1.01887 482.335
-53.1893 -1.75777 479.398
13.3249 12.5921 481.994
-34.3866 -9.8634 481.017
17.7364 5.84926 481.984
0.0893177 -4.89218 482.322
16.5717 7.59766 482.004
-5.49333 -57.8249 478.839
12.3267 12.9673 482.021
2.17167 -7.8904 482.285
-34.7792 -19.5703 480.703
19.0056 3.97631 481.979
-5.65832 -3.89266 482.325
-13.1847 -56.71 478.852
-8.40654 4.60356 482.286
-52.8256 -1.38544 479.478
23.6369 -3.88828 481.788
-1.6553 -36.7766 480.979
-32.9459 -7.00007 481.209
-33.2357 7.08634 481.189
-3.63421 -56.6082 479.041
-22.4804 -55.3257 478.681
-21.9266 -41.1894 480.13
-18.2713 -55.2647 478.869
0.963314 -18.9998 482.019
18.2373 5.10048 482.023
-34.8055 8.33061 481.065
-19.941 -53.9574 478.958
2.58865 -4.39294 482.377
-0.910159 10.8505 482.283
18.9414 9.96859 481.932
-13.1871 -56.2242 478.941
-16.177 -56.843 478.778
-1.8597 -46.9513 480.12
-15.0875 -56.3406 478.875
-10.1757 -56.1633 479.026
-32.3192 -12.9824 481.157
-1.40588 -38.1414 480.906
-47.4006 -13.8184 479.886
8.58323 12.8465 482.172
-3.6595 -5.64253 482.374
-16.1867 -56.2638 478.856
17.1977 -8.01129 482.049
-49.3774 -10.9979 479.767
5.70908 -17.7526 482.067
20.5667 -1.64241 481.986
-18.0787 -56.0765 478.821
-35.0523 -10.9853 481.032
-19.5846 -36.5025 480.653
-20.9103 -52.8643 479.075
-24.3752 -1.72506 481.818
1.33905 -6.64248 482.391
-19.1555 -54.9534 478.919
-22.3395 -42.0154 480.094
15.7427 8.765 482.111
-23.0189 -47.3528 479.567
-10.4585 -56.7261 478.988
-29.6005 -0.143933 481.541
-4.87961 -53.3057 479.473
-25.2061 1.68658 481.794
-5.53873 -55.8394 479.187
3.58811 10.1021 482.344
14.8259 12.2613 482.079
0.337991 -43.4625 480.509
-1.66044 0.605717 482.472
-4.40217 -28.839 481.597
3.33839 -9.6413 482.372
-4.875 -57.4745 479.02
7.83509 12.5988 482.253
-32.2424 -12.1124 481.252
-50.6248 3.08834 479.81
16.2018 8.09941 482.143
-0.410452 11.3518 482.351
-14.1808 -56.3527 478.978
-17.2522 -56.2462 478.893
20.5695 1.60422 482.053
-37.7582 -20.5613 480.579
22.5623 5.59904 481.938
23.7473 -0.0190974 481.916
-32.5095 -13.9812 481.206
-2.89426 -50.8572 479.81
0.586744 -45.687 480.34
-4.66018 3.35548 482.475
-51.3594 -8.09674 479.705
-50.2503 -9.71405 479.794
0.337641 -49.1375 480.011
-35.2526 3.97005 481.215
-2.29921 -47.8568 480.137
-14.2548 -56.7729 478.964
21.8152 6.84827 481.986
17.0744 11.3458 482.094
-2.93112 -49.0323 480.025
-11.3801 -33.5544 481.229
20.1971 2.10393 482.105
-32.5616 -19.0863 481.056
-33.0818 5.09365 481.372
19.74 2.85344 482.126
23.1879 3.97624 481.968
0.337994 -44.2097 480.513
-15.1862 -56.804 478.947
-2.70957 -48.216 480.122
23.5624 2.72762 481.965
-35.9359 4.96694 481.184
-4.26025 -52.5807 479.658
3.08941 4.85579 482.52
-27.6141 -7.3818 481.707
-49.2768 5.82516 479.997
-16.9799 -35.7769 480.941
-48.5382 6.94544 480.072
16.7034 -8.76349 482.202
-9.58556 -59.6771 478.771
0.337597 -50.2501 479.948
-23.9455 -44.9799 479.877
-7.35556 -58.705 478.935
23.8132 0.97959 481.988
18.2022 -6.14014 482.196
7.8368 12.2269 482.362
-3.30982 -49.8809 479.985
-51.6196 1.09958 479.814
19.8251 -3.01708 482.172
23.6887 -3.01609 481.998
18.8268 -5.0159 482.197
-53.3397 0.850658 479.633
17.9501 10.7847 482.136
-23.0455 -42.992 480.12
20.8231 1.02173 482.142
22.1298 -7.01229 482.037
-1.24016 -38.9398 481.025
1.33938 -9.39403 482.508
20.9454 7.97363 482.082
-49.7749 4.83052 480.005
-21.7655 -51.7989 479.323
17.5756 -11.8849 482.14
7.21256 12.3527 482.397
-21.8924 -0.0191635 482.118
-29.362 -0.393574 481.722
-6.16631 -58.0762 479.07
19.244 -4.14161 482.215
-48.1615 -12.9109 480.036
-36.4363 5.71517 481.208
-36.9318 6.21326 481.166
1.83948 8.85612 482.537
-36.1848 9.08044 481.179
16.3308 -9.13941 482.264
19.8236 8.97367 482.137
20.8247 -1.09342 482.179
-23.1393 -1.01828 482.076
-0.410201 -23.6215 482.055
23.8159 -2.01719 482.042
20.8214 -9.01123 482.1
-22.7655 -50.3235 479.463
21.6949 -7.76228 482.085
-5.84153 -39.9138 480.947
-26.1281 -2.89052 481.921
0.755583 -19.9654 482.224
6.83624 -16.8864 482.295
0.839222 -14.766 482.413
10.8375 9.10421 482.436
-24.2386 -52.9354 479.12
-51.2577 1.9702 479.916
-24.1367 1.2295 482.044
-18.0265 -56.8461 478.954
-6.98499 -58.4706 479.048
23.1514 -5.05621 482.075
-0.160551 -22.9999 482.111
-32.4855 -19.838 481.158
-3.78014 -28.2286 481.825
-8.84426 -59.3242 478.926
-1.15948 -24.9938 482.026
-21.9959 -55.851 478.932
-0.990873 -39.9369 481.025
-0.743281 -24.1222 482.078
-47.6734 -13.5767 480.13
4.21244 -19.0102 482.289
-18.516 -58.438 478.78
-26.2558 2.10339 481.971
-35.8133 -12.1113 481.211
22.2391 6.10113 482.15
-0.409211 -41.753 480.892
-23.0402 -45.4069 480.01
-23.5445 -43.6788 480.151
-6.76584 -38.6561 481.111
-6.39144 -39.1519 481.077
-22.8939 0.855151 482.167
-53.4728 -5.23861 479.713
0.214251 -22.0052 482.212
-19.7745 -54.5189 479.219
-7.26543 -37.9137 481.179
-22.7307 -57.6876 478.729
-5.14409 -40.8875 480.969
-0.110059 -51.1769 480.012
-17.0285 -59.0612 478.806
-11.3244 -59.9377 478.871
-53.4788 -2.06976 479.766
17.335 6.35416 482.395
-32.5094 -20.8373 481.204
-4.7699 -41.6318 480.931
-2.40126 -44.9695 480.651
-54.0925 -4.36854 479.698
-4.27118 -42.2508 480.886
4.58806 -18.6388 482.377
-1.84637 -25.9943 482.056
-24.3929 -48.3614 479.713
22.7 4.97766 482.213
21.0805 -0.0191922 482.314
19.3338 3.3548 482.379
-7.91378 1.73144 482.71
-31.8575 3.10061 481.716
22.6998 -6.01526 482.207
20.249 -2.14347 482.351
-24.3514 -56.0948 478.895
-0.285712 -10.2726 482.677
-23.7293 -56.7108 478.859
-10.185 -59.8007 478.967
21.3277 -8.26462 482.254
23.637 1.97962 482.215
-27.382 2.60305 482.015
2.59041 9.10937 482.706
-25.1408 -2.14245 482.14
-34.8321 -10.3709 481.434
-0.657105 -52.2417 479.969
-5.16315 -4.3964 482.758
-12.1938 -59.9432 478.915
-50.8977 -8.93141 480.039
-32.8355 -16.3568 481.418
6.09167 8.85904 482.696
-31.6115 -3.88818 481.77
-0.658606 -41.1451 481.066
-4.38762 -51.9221 480.004
-0.40849 -51.7526 480.045
-50.2913 3.96161 480.186
6.33894 -17.143 482.483
-51.6393 -7.85297 479.997
-1.41119 10.3601 482.721
-1.1613 -4.64705 482.811
-8.22796 -58.9802 479.155
15.3394 9.10576 482.518
0.587118 -46.0897 480.646
-18.969 -55.7025 479.255
-29.2751 -5.98697 481.934
-5.37819 -55.5595 479.629
0.586859 -48.4341 480.434
-28.2544 -7.38606 481.986
1.3399 12.8605 482.697
-53.8592 -4.74273 479.834
21.3317 7.35312 482.344
4.83921 -18.3935 482.499
-28.2568 -4.76436 482.027
0.587 -47.4498 480.55
-1.41166 1.23178 482.883
-52.2001 -6.98266 480.007
-6.99847 -3.14628 482.831
23.7666 -1.0188 482.31
-51.1604 -2.88014 480.17
-18.0267 -58.8321 478.96
-27.2626 -3.76603 482.112
-27.7604 -4.26534 482.081
-28.3003 3.10279 482.059
4.59229 -7.39887 482.821
-32.8401 -16.9828 481.485
-15.7929 -59.6992 478.948
-23.8001 -44.3136 480.289
-27.0156 2.35403 482.16
-0.410929 3.23347 482.911
-3.94161 -51.048 480.202
-4.99759 6.86035 482.85
-52.2711 0.105107 480.088
-1.3201 -53.9337 479.904
1.59056 -7.27457 482.87
-29.3781 -6.88661 481.986
-19.2717 -57.8522 479.065
-38.3143 9.83106 481.308
0.589875 5.23501 482.903
3.09132 9.98702 482.821
-3.28296 -27.7468 482.128
18.3382 10.3551 482.488
-3.64393 -50.1648 480.322
23.332 -4.26787 482.365
-24.5388 -45.9163 480.135
-1.65865 -30.9828 481.952
-3.91349 7.86151 482.872
-31.4965 -2.14154 481.921
-0.160116 -42.5171 481.08
-8.41685 -2.39601 482.878
-13.9756 -59.7933 479.039
-1.65884 -30.2373 482.009
-24.7338 -55.7458 479.094
-29.2993 3.68551 482.058
-0.410961 -4.39814 482.948
23.3335 3.22992 482.396
-3.41321 8.36218 482.888
-31.3734 -3.01563 481.946
-5.00723 -55.0822 479.801
-1.97466 9.86309 482.877
-2.91282 8.86268 482.893
0.213678 -43.8794 480.987
-32.843 -18.107 481.528
-16.5415 -59.2179 479.07
8.21862 12.6122 482.764
-21.1684 -58.9517 478.923
-39.3159 6.34051 481.36
-0.348362 -11.0275 482.879
-23.2418 -57.2287 479.04
-2.41255 9.36335 482.909
-20.3817 -59.4452 478.901
-36.8335 9.33623 481.51
-48.819 -11.9662 480.387
-4.4144 7.36212 482.935
-5.01009 -52.9989 480.069
-1.28691 -3.14744 483.003
-31.1261 5.0002 481.986
-2.12117 -0.0609214 483.019
20.3397 8.35588 482.525
0.589772 -14.1531 482.818
-21.5257 -39.885 480.901
-51.8319 0.934813 480.245
-1.65182 -54.3554 479.968
-20.7681 -56.8789 479.23
-20.3119 -57.2485 479.207
-32.2463 5.89022 481.931
-32.6222 -0.393761 481.951
-7.61722 -55.5777 479.786
-50.8083 3.09192 480.369
-2.11296 -1.9464 483.051
-34.2339 7.71911 481.791
-24.069 -48.9566 479.979
-23.7612 -53.5574 479.503
-0.119118 3.94354 483.059
0.839912 -16.0289 482.81
-2.78431 -27.1321 482.306
-24.6569 1.35557 482.446
-15.0545 -59.641 479.146
