ply
format ascii 1.0
comment Created by Open3D
element vertex 1879
property double x
property double y
property double z
end_header
-89.4526 -53.1849 939.312
-103.379 -53.0233 939.319
-1.04158 -28.8963 939.32
-122.972 -57.5573 939.32
1.87309 -26.4675 939.321
-77.309 -44.4414 939.322
8.35019 -20.9621 939.324
-63.7074 -42.9842 939.324
-68.0795 -42.9842 939.326
-169.608 -72.617 939.326
-111.8 -57.5578 939.328
16.4467 -25.4963 939.334
-117.63 -54.6435 939.334
-117.631 -58.5303 939.342
1.87314 -22.5818 939.343
-75.1248 -48.5716 939.343
-64.1946 -39.0988 939.345
1.87314 -25.4966 939.346
-53.5075 -36.6701 939.351
-77.4739 -46.5482 939.358
-81.6843 -42.5 939.359
88.3458 -96.4241 939.363
-13.6725 -30.3551 939.364
-1.04164 -25.0115 939.369
-83.6285 -48.8159 939.37
5.75964 -20.6393 939.371
-207.995 -76.0212 939.372
-70.9982 -42.5008 939.378
-36.9915 -64.3623 939.378
-122.98 -54.6461 939.379
-73.9133 -43.9584 939.381
-21.4457 -31.3273 939.382
-83.6296 -50.7598 939.382
-135.449 -60.7999 939.383
-53.5093 -41.0436 939.384
-70.9989 -43.9587 939.388
-58.3679 -42.0156 939.391
-77.3154 -47.8458 939.399
-86.5461 -48.8174 939.4
-84.603 -46.3885 939.402
11.5897 -23.0691 939.404
-99.1782 -54.6478 939.407
108.755 -94.4855 939.409
-121.041 -64.8502 939.409
-91.4053 -42.5023 939.411
-141.932 -57.0772 939.413
-20.9606 -32.7859 939.416
-216.752 -83.7988 939.425
-137.075 -69.2238 939.425
-78.7751 -47.8471 939.426
-11.2442 -24.5271 939.426
-204.121 -96.4309 939.429
-139.991 -53.6775 939.432
0.901641 -27.4423 939.432
-191.49 -78.9411 939.433
-136.105 -67.2812 939.436
-17.0744 -29.3858 939.437
-1.04172 -27.4426 939.44
-19.5037 -32.301 939.441
14.5053 -21.6126 939.446
-123.474 -59.0226 939.446
-98.2122 -52.7075 939.462
-62.2594 -44.9341 939.466
-49.6273 -32.7878 939.467
-141.941 -67.284 939.475
6.73201 -19.6699 939.477
-20.4764 -29.3875 939.49
-0.0700381 -19.6703 939.497
-171.097 -75.0596 939.498
7.70391 -21.6138 939.499
-155.064 -76.0317 939.502
-18.5333 -23.5575 939.506
-138.059 -67.2863 939.506
-76.8385 -45.9078 939.508
-174.015 -75.0609 939.514
-131.258 -53.6824 939.518
-66.1499 -41.0495 939.518
7.70407 -19.6707 939.519
-80.7274 -37.1629 939.53
10.1336 -19.671 939.533
-136.12 -62.4299 939.542
-88.9888 -44.9378 939.544
-79.7571 -37.1636 939.547
-115.714 -51.7405 939.548
-109.883 -53.6844 939.553
-191.515 -75.064 939.553
-63.2373 -37.164 939.557
-62.2655 -38.1358 939.558
-57.4068 -36.1924 939.563
-92.3921 -43.967 939.564
-79.7587 -40.0798 939.566
-127.378 -58.5443 939.568
-17.0768 -26.9604 939.569
-74.9007 -42.5099 939.579
-81.2177 -43.9677 939.581
-192.492 -101.306 939.583
15.1553 -20.9679 939.584
-66.1546 -34.2496 939.584
-111.345 -50.7709 939.587
-126.41 -61.4616 939.596
-169.657 -72.6378 939.596
-188.608 -77.9831 939.598
-52.5497 -36.6797 939.598
-60.3262 -32.3073 939.625
-112.808 -50.773 939.627
-87.5392 -40.5685 939.63
-63.5662 -38.4627 939.63
-123.013 -53.6889 939.631
-137.753 -65.0275 939.632
-79.7643 -42.9983 939.632
-85.596 -46.4 939.637
-56.9255 -41.0548 939.64
-105.52 -48.83 939.641
-82.6807 -41.0549 939.641
-116.94 -51.0168 939.642
-130.304 -55.6334 939.645
-118.642 -56.6056 939.649
-60.0039 -38.7875 939.65
-13.0287 -31.0125 939.654
-135.165 -59.5216 939.654
-71.9909 -41.0554 939.654
-6.87339 -27.4489 939.656
-118.643 -53.6906 939.662
-115.728 -57.0923 939.663
-60.3287 -31.3367 939.664
-97.7473 -48.3452 939.664
-60.3287 -35.2244 939.664
-131.279 -57.5785 939.665
-101.149 -55.1488 939.666
-9.14134 -22.9136 939.671
-140.999 -64.3825 939.674
-75.3943 -44.4581 939.676
-162.382 -59.5231 939.677
-115.244 -54.6635 939.678
-52.8782 -34.901 939.679
-69.725 -42.6764 939.679
-51.0964 -32.3092 939.68
-80.7404 -42.5146 939.682
-124.964 -57.0936 939.683
-60.3302 -36.6832 939.687
-63.5701 -44.6208 939.689
-118.647 -59.5239 939.69
-11.2474 -22.5902 939.691
195.291 -85.7667 939.694
10.6214 -21.6184 939.698
-186.684 -93.5427 939.698
-51.5835 -37.1696 939.7
6.40971 -21.2945 939.703
-90.7859 -49.1572 939.704
-119.135 -55.1511 939.704
-20.967 -32.7962 939.706
19.3691 -19.6747 939.706
-217.303 -87.226 939.708
4.30372 -23.0766 939.709
-2.01398 -25.0205 939.714
-121.566 -55.6376 939.714
-127.074 -66.6532 939.715
-54.5005 -36.6844 939.72
185.577 -86.741 939.72
-176.969 -80.4233 939.721
-138.091 -62.442 939.724
-82.6882 -42.5166 939.727
-104.073 -50.7788 939.736
-217.407 -84.993 939.737
-15.1359 -28.4232 939.738
103.933 -92.5747 939.738
-59.0375 -42.6793 939.74
-87.0636 -46.4052 939.741
201.134 -84.3136 939.748
-110.879 -55.6398 939.751
-17.0802 -28.4236 939.752
-74.9144 -41.0597 939.752
-144.899 -60.5 939.754
-192.528 -78.9684 939.758
-82.9341 -51.0231 939.76
-104.076 -53.6964 939.763
-121.087 -64.8752 939.771
-56.9336 -42.5186 939.772
-120.601 -59.5292 939.773
-87.2289 -48.513 939.777
-95.3292 -51.2672 939.778
-104.078 -59.0436 939.779
-129.594 -60.9878 939.784
-97.2741 -43.9773 939.786
-115.419 -61.1501 939.788
-135.67 -68.7647 939.79
-51.1025 -38.6314 939.791
-153.653 -79.9433 939.792
-54.5047 -35.2292 939.793
-72.0017 -42.5196 939.795
-126.437 -64.8769 939.795
-62.2813 -37.1735 939.796
-101.488 -58.8829 939.8
-65.6843 -44.9503 939.806
266.275 -52.7268 939.806
-113.315 -55.6431 939.807
-87.0697 -44.9504 939.807
-105.377 -50.4587 939.808
32.9802 -19.1909 939.811
-136.159 -61.4757 939.811
-137.779 -68.6042 939.812
-2.0142 -21.621 939.812
-115.746 -53.6992 939.812
-148.797 -66.3362 939.814
-94.8467 -48.839 939.814
-177.311 -82.2134 939.815
5.76236 -19.6769 939.815
-88.5287 -48.3531 939.818
-130.976 -59.2081 939.819
-166.295 -67.3087 939.819
0.902012 -23.5653 939.819
-91.2026 -51.0264 939.824
-20.8076 -30.694 939.824
6.24857 -23.0794 939.825
-163.38 -85.7788 939.828
-179.42 -84.5637 939.828
-103.597 -55.1584 939.83
-65.6861 -42.5214 939.833
3.8183 -21.1356 939.834
-133.733 -66.8236 939.835
-211.015 -82.8639 939.842
-207.613 -76.5451 939.842
-176.992 -78.9756 939.843
-63.581 -40.74 939.849
-17.082 -32.8011 939.849
-69.5757 -44.4664 939.85
-75.8944 -46.4106 939.85
-111.215 -53.0534 939.853
-88.5322 -46.8969 939.855
-99.8088 -50.9798 939.855
-115.752 -47.8691 939.856
-217.176 -82.5413 939.859
-188.984 -97.1231 939.859
-101.494 -57.2665 939.862
-3.47252 -25.0246 939.863
-115.266 -62.9372 939.863
-141.028 -62.9372 939.864
-169.219 -71.2004 939.865
-174.08 -79.9497 939.866
-101.171 -52.7303 939.868
-17.0824 -30.8575 939.87
-19.0265 -30.8577 939.872
-130.011 -63.1 939.873
-63.7446 -42.0372 939.874
-61.8004 -40.579 939.874
-123.045 -56.6193 939.876
-199.034 -87.404 939.881
0.253932 -26.8074 939.886
8.19311 -23.081 939.886
-104.09 -46.8986 939.89
-133.741 -62.9393 939.893
-154.642 -80.9242 939.895
-151.079 -70.8791 939.903
-13.1942 -32.3169 939.903
-91.4533 -45.9272 939.904
-13.0322 -28.7523 939.904
203.112 -84.8137 939.905
-81.2456 -50.788 939.905
-147.515 -64.7225 939.906
-138.117 -57.1072 939.906
-8.81958 -24.5398 939.91
-77.3579 -48.8441 939.913
-2.01442 -28.9148 939.915
-154.646 -86.759 939.915
-112.842 -52.7331 939.917
-139.74 -72.5011 939.923
-88.9276 -50.9836 939.924
-138.12 -60.9971 939.925
-129.047 -57.2705 939.927
14.9989 -23.0821 939.928
-37.4994 -59.5391 939.93
-121.108 -63.428 939.932
-71.6884 -44.6324 939.933
-131.316 -61.4837 939.934
-193.537 -102.802 939.935
-109.928 -55.6506 939.935
-150.76 -82.8721 939.935
-134.233 -61.4838 939.935
-192.889 -80.2796 939.936
-13.6808 -75.0946 939.936
-7.84765 -103.288 939.938
-149.788 -80.928 939.938
8.19358 -25.0266 939.938
-90.9708 -53.2205 939.94
-95.3461 -55.1652 939.945
-135.207 -64.8874 939.946
-19.0281 -28.4296 939.948
-131.804 -62.9431 939.95
-83.0321 -48.522 939.954
-133.912 -65.0499 939.954
-173.124 -76.0683 939.955
-109.606 -59.2168 939.956
-122.569 -59.0546 939.957
-115.44 -58.8929 939.961
-129.375 -58.8119 939.962
-117.223 -53.2218 939.963
-69.7462 -46.5782 939.964
-52.8942 -40.4209 939.965
-124.84 -58.8935 939.972
0.416024 -25.0276 939.973
-5.41741 -23.083 939.974
-93.21 -50.5974 939.974
14.8377 -24.8656 939.98
-174.101 -78.0149 939.981
-113.336 -57.1117 939.982
-92.9194 -53.223 939.984
-190.63 -76.5572 939.986
-119.17 -64.8899 939.986
-117.226 -57.1121 939.987
-58.891 -44.473 939.988
-99.7257 -53.2233 939.989
-35.3952 -59.219 939.991
-3.31083 -23.2455 939.993
-109.611 -56.9507 939.997
-51.1139 -40.5846 940
2.52274 -23.2458 940
-59.8642 -40.5844 940
-97.7831 -46.9045 940.008
-126.952 -68.7809 940.011
-175.566 -76.5592 940.013
-97.784 -50.794 940.016
-135.217 -57.6001 940.017
20.3479 -27.4595 940.022
-151.422 -85.1483 940.022
2.52284 -24.8669 940.025
-139.593 -64.8926 940.026
-125.009 -55.6562 940.028
-79.474 -46.2575 940.029
-7.36228 -24.5429 940.031
-11.2514 -30.8629 940.032
-67.4825 -46.5816 940.032
-77.2702 -50.795 940.032
-53.0603 -38.6413 940.033
-139.595 -70.7271 940.034
17.4313 -18.7092 940.035
-3.47298 -26.9738 940.036
-107.023 -53.712 940.036
-142.998 -69.269 940.039
-105.565 -53.2263 940.039
-37.6658 -65.0558 940.039
-72.9927 -40.5861 940.039
-5.25568 -24.8674 940.043
-113.344 -62.9494 940.044
-135.545 -66.6767 940.045
0.415941 -30.8635 940.047
-117.234 -61.0052 940.048
-145.431 -70.7285 940.05
-85.2449 -50.9906 940.053
212.868 -83.855 940.055
-2.01473 -23.0853 940.061
-72.9944 -38.6424 940.061
204.118 -84.8279 940.061
-109.457 -61.006 940.062
-194.86 -82.5597 940.066
-137.817 -70.8917 940.067
-159.532 -80.9391 940.068
-123.07 -61.0066 940.07
-65.7031 -46.4217 940.074
32.5033 -21.1409 940.075
-131.141 -66.7437 940.075
-15.1412 -32.8092 940.077
-101.68 -62.9518 940.081
-75.9131 -48.8529 940.082
13.0564 -21.1411 940.083
-7.36265 -30.8647 940.083
-107.029 -55.1735 940.086
-69.5931 -48.3672 940.086
-123.073 -55.6597 940.089
10.1395 -23.086 940.091
-187.249 -96.9851 940.091
-161.481 -82.886 940.093
-71.5385 -46.4228 940.095
-79.8037 -44.4779 940.096
-3.47336 -28.9205 940.1
-117.078 -55.3363 940.101
-95.168 -58.967 940.108
-71.54 -48.3683 940.111
-149.33 -78.9982 940.112
-18.8694 -32.9723 940.113
2.84706 -21.628 940.115
-125.021 -64.8991 940.117
0.416131 -32.8106 940.12
-113.353 -61.0098 940.121
-155.166 -78.5129 940.122
-7.36303 -23.0868 940.127
-107.52 -59.0656 940.129
-205.894 -98.7719 940.131
-55.0105 -42.5351 940.134
-118.703 -61.0107 940.134
10.6264 -28.9215 940.136
-90.9898 -55.1764 940.136
-139.124 -55.6626 940.137
16.9471 -23.0871 940.137
-105.576 -55.1766 940.139
-10.7666 -26.4906 940.14
-179.317 -86.7796 940.14
-180.938 -80.9454 940.141
-55.011 -46.425 940.141
-90.9907 -57.1218 940.146
-56.9562 -44.4805 940.146
16.9473 -21.1424 940.147
-175.591 -82.4044 940.148
-49.177 -38.6458 940.148
-11.2529 -28.9219 940.149
-111.25 -56.9601 940.151
-56.957 -46.4257 940.156
4.30573 -26.9773 940.158
-161.007 -84.5936 940.162
0.41616 -28.9222 940.163
-119.193 -68.7923 940.168
-67.1682 -40.5919 940.169
-70.0856 -41.078 940.17
-175.109 -75.1135 940.172
-61.139 -44.3844 940.172
-103.635 -61.0133 940.175
-37.5093 -62.472 940.175
10.6269 -25.033 940.176
-1.69101 -26.8159 940.178
-81.2693 -48.3717 940.178
-97.6389 -53.3962 940.179
-9.30838 -30.8678 940.18
-73.4896 -46.4269 940.18
-133.944 -68.9554 940.181
-131.351 -64.9036 940.183
-141.399 -66.6867 940.183
-148.855 -72.1972 940.185
6.25085 -25.0331 940.186
-113.361 -59.0692 940.187
-48.6929 -32.813 940.188
2.36123 -30.8681 940.189
-139.618 -68.794 940.192
-85.6466 -48.3726 940.193
-15.1434 -76.5741 940.195
-5.41883 -26.9783 940.196
-73.329 -44.6448 940.196
-115.308 -66.8497 940.2
2.52334 -27.1407 940.203
-22.437 -43.0244 940.204
-17.0886 -36.7035 940.205
-115.47 -65.0674 940.206
-95.1781 -53.3328 940.207
-33.1344 -68.3093 940.212
-139.621 -74.6307 940.214
-55.0152 -44.4836 940.216
-149.185 -68.9582 940.218
-53.071 -42.5393 940.224
4.30621 -30.8693 940.229
-53.0711 -46.4294 940.229
-5.41884 -28.9246 940.231
-152.753 -67.3383 940.233
-95.3753 -57.1272 940.234
-79.3298 -50.806 940.241
-32.163 -67.3389 940.241
-128.928 -64.9077 940.243
2.36133 -28.9248 940.243
-73.5918 -48.6666 940.243
-203.002 -94.894 940.248
4.30617 -25.035 940.252
-15.6305 -79.9825 940.253
-107.534 -57.1282 940.254
-99.916 -55.3454 940.255
-101.699 -61.0185 940.256
-125.04 -61.5049 940.258
-49.1829 -40.5958 940.26
17.1114 -24.8733 940.261
-3.47389 -30.8704 940.261
19.3806 -21.145 940.265
-54.5324 -38.6512 940.271
-83.2224 -57.1295 940.272
-61.3399 -42.5413 940.273
-137.685 -72.6903 940.276
-101.701 -64.91 940.277
-119.207 -62.9652 940.278
-11.2544 -32.3298 940.278
-20.9797 -34.761 940.279
13.0593 -23.0905 940.28
-75.6859 -50.8084 940.281
-111.427 -61.0201 940.281
-87.2111 -51.0033 940.285
-81.2787 -53.2401 940.286
-175.617 -78.5265 940.287
-17.5763 -75.1234 940.297
-67.1773 -44.4875 940.297
-33.1376 -64.9117 940.302
34.4563 -19.2008 940.304
-150.82 -80.4736 940.306
-162.491 -89.2265 940.309
-71.4577 -50.6154 940.31
-143.526 -78.5285 940.311
-121.158 -66.8583 940.319
-61.343 -46.4339 940.319
-123.103 -62.968 940.321
-17.0906 -34.7628 940.325
-85.6587 -44.4891 940.325
-99.7616 -57.1328 940.327
-85.1729 -53.2424 940.329
194.451 -85.8249 940.332
-89.5498 -62.9688 940.333
-126.995 -72.6949 940.336
-131.372 -68.8047 940.337
-67.5043 -42.3823 940.339
-103.654 -62.9693 940.341
-5.41947 -30.873 940.341
-126.996 -70.7503 940.342
-65.7218 -48.3803 940.344
-87.1197 -53.2435 940.346
-9.30994 -28.9281 940.347
-94.9007 -61.0245 940.348
15.0055 -30.8733 940.349
18.8957 -22.606 940.351
10.629 -26.983 940.353
-103.655 -57.1346 940.354
-17.0911 -76.1007 940.355
-88.5796 -53.2441 940.358
-117.11 -59.2422 940.36
-187.14 -95.2298 940.363
-69.6138 -50.8127 940.363
-193.139 -81.9373 940.365
-63.7783 -46.4363 940.368
29.1092 -25.5244 940.369
-19.1989 -72.8596 940.372
-1.52924 -30.8742 940.372
-34.1128 -62.4851 940.373
-36.0582 -68.3213 940.377
-83.2317 -53.2453 940.377
-135.755 -70.753 940.378
-71.5603 -52.7587 940.379
36.4047 -19.2024 940.382
-152.777 -68.3218 940.384
-35.5723 -66.3766 940.386
-67.6697 -48.3824 940.386
-145.969 -78.5351 940.387
-181.472 -87.2888 940.388
36.4051 -21.148 940.392
-203.357 -97.0158 940.393
15.0064 -26.9843 940.398
-149.213 -70.5924 940.399
8.19761 -32.8204 940.402
-101.715 -66.8641 940.404
-97.8249 -55.1924 940.409
-20.9827 -42.5475 940.41
-183.584 -84.5347 940.412
44.4789 -21.0513 940.414
30.0833 -22.6076 940.415
-121.17 -70.7558 940.415
-49.191 -36.7115 940.415
8.19772 -34.7663 940.418
-19.0377 -36.712 940.426
6.25255 -28.9305 940.427
-141.112 -61.0296 940.429
-113.39 -64.9207 940.429
-205.311 -103.343 940.431
-35.574 -62.9758 940.432
6.25253 -26.9852 940.433
-153.435 -78.3771 940.437
-49.1919 -34.7671 940.437
-121.173 -68.812 940.437
-115.337 -68.8121 940.439
-123.12 -64.9218 940.446
-128.957 -66.8676 940.45
-153.437 -70.9205 940.451
-20.9835 -44.4948 940.453
-125.066 -62.9767 940.454
-58.9206 -46.4407 940.458
-201.232 -91.2838 940.459
-49.6797 -46.4407 940.46
-147.926 -82.4319 940.461
-125.067 -68.8139 940.461
-105.612 -59.0866 940.463
-20.984 -38.659 940.466
-89.076 -55.1958 940.466
-79.511 -48.5486 940.467
-183.27 -89.4041 940.468
-143.55 -73.1917 940.47
-20.9841 -36.7138 940.47
-183.433 -91.1878 940.471
-73.5125 -50.8186 940.472
-92.9677 -55.1962 940.473
-151.495 -66.7069 940.474
-63.7854 -48.387 940.476
49.0544 -21.15 940.479
-182.949 -87.7843 940.484
-111.451 -59.0878 940.484
-69.6226 -53.2514 940.485
-51.1403 -44.4965 940.485
186.701 -86.8121 940.49
34.4631 -21.1502 940.49
-4.93398 -21.6367 940.495
-147.932 -78.0576 940.495
-123.126 -66.8709 940.497
-54.5457 -40.6059 940.499
-77.406 -57.1432 940.5
-85.1884 -55.1979 940.501
-103.672 -64.9258 940.503
-133.828 -70.7625 940.504
-87.1345 -55.1982 940.506
-97.8351 -57.1437 940.507
13.0623 -25.0419 940.507
-89.2424 -65.0883 940.511
-51.1418 -42.5522 940.513
-77.4072 -53.2528 940.513
-144.044 -60.5489 940.515
-37.523 -66.8722 940.519
-151.178 -86.4905 940.521
32.5186 -23.0966 940.521
-77.5698 -55.0367 940.521
-19.0398 -34.7701 940.522
-7.36582 -21.6374 940.524
-51.1424 -46.4439 940.526
-111.456 -62.9818 940.528
-125.077 -66.8734 940.534
-140.155 -66.387 940.534
19.3862 -33.3115 940.538
16.7922 -31.0418 940.54
-61.8442 -50.3361 940.541
-151.182 -68.6576 940.541
-151.344 -76.6025 940.542
-156.695 -80.4937 940.544
-161.559 -87.7899 940.544
46.8201 -21.2488 940.546
-165.775 -91.0336 940.551
-75.4648 -55.201 940.555
-56.981 -48.3912 940.558
-67.7796 -50.6287 940.558
-39.3081 -58.9305 940.559
-38.0109 -61.0377 940.559
-3.47489 -34.7718 940.56
22.7915 -25.5296 940.561
4.30769 -28.9347 940.563
-3.47481 -32.8261 940.565
-53.0905 -48.3919 940.571
-73.0341 -42.5548 940.571
-157.348 -85.1982 940.574
-201.453 -92.6579 940.583
2.19999 -32.6646 940.586
-153.783 -85.8481 940.587
-149.406 -84.3891 940.588
-158.648 -88.7669 940.588
-137.731 -74.6605 940.589
-49.2001 -44.5013 940.589
-35.0935 -72.7148 940.591
-90.5477 -69.31 940.595
18.4147 -37.2054 940.603
-55.0387 -48.394 940.612
-105.629 -57.1503 940.614
-58.9305 -48.3941 940.616
-20.9873 -40.6111 940.618
2.36227 -34.7736 940.618
-33.6353 -72.7171 940.619
-81.3073 -55.2047 940.619
-15.3121 -36.5575 940.62
-34.122 -61.0423 940.628
237.321 -80.0146 940.63
-19.042 -38.6658 940.631
-7.36702 -28.9368 940.633
13.0642 -26.9911 940.635
-56.4996 -55.2059 940.638
-103.686 -66.8809 940.638
-141.63 -68.827 940.64
145.869 -17.7484 940.643
10.6319 -32.8289 940.644
-115.362 -70.7731 940.645
-85.2014 -57.152 940.645
-67.8509 -55.0443 940.65
-94.931 -62.99 940.65
-180.064 -82.9354 940.654
-68.1758 -57.1527 940.654
-147.471 -74.6654 940.656
-96.3913 -72.2334 940.657
-127.039 -76.6119 940.661
-37.3664 -55.3693 940.663
161.439 -89.7471 940.665
34.4697 -23.1004 940.668
-105.636 -61.0454 940.668
-119.257 -66.8831 940.669
-127.041 -74.667 940.673
38.3618 -21.1544 940.676
-119.258 -70.7754 940.677
-159.636 -81.9647 940.679
-33.637 -66.3973 940.679
-53.0965 -50.3434 940.679
-17.0971 -38.668 940.684
-97.3671 -59.1004 940.684
-5.4215 -32.8304 940.689
-39.4758 -61.5332 940.689
-109.53 -62.9927 940.69
-55.0433 -50.3442 940.693
-147.477 -72.7226 940.694
0.578537 -34.6147 940.698
-109.531 -64.9394 940.701
-133.175 -74.7666 940.701
13.2272 -36.5603 940.704
-162.559 -85.8588 940.704
-85.2068 -59.1015 940.704
-128.991 -68.8316 940.704
-75.3797 -52.9719 940.706
16.9573 -26.9929 940.707
-17.0975 -73.2104 940.709
-37.5306 -57.6427 940.713
-84.721 -64.94 940.713
-100.289 -69.3188 940.714
19.3899 -34.2908 940.714
-156.723 -89.7519 940.716
-89.0999 -57.1564 940.716
-86.6674 -65.4269 940.717
-53.0987 -44.5074 940.717
15.0114 -28.9394 940.718
36.2554 -22.9394 940.718
-155.264 -88.7787 940.721
-132.886 -72.725 940.724
-83.2627 -55.211 940.728
-86.6685 -66.4008 940.729
-143.59 -80.5096 940.729
-131.427 -70.7795 940.73
-206.35 -100.457 940.73
-69.479 -55.0492 940.732
-101.913 -70.6176 940.733
-117.319 -62.9956 940.735
-1.52986 -32.832 940.737
-144.078 -74.1857 940.738
16.9581 -28.9402 940.746
0.41653 -38.1842 940.75
-19.0444 -40.6168 940.751
-1.5298 -34.7788 940.754
-15.3144 -34.941 940.757
13.0661 -28.9409 940.764
-144.082 -57.6459 940.766
-1.36764 -38.5093 940.769
10.6335 -30.8871 940.769
-107.593 -68.8368 940.774
38.3659 -23.1029 940.776
-187.386 -99.0021 940.779
-15.1527 -40.6181 940.781
38.3661 -25.0492 940.781
-135.57 -74.4326 940.784
-147.653 -67.0536 940.786
-101.756 -68.8375 940.786
-135.327 -72.7299 940.787
42.0965 -22.941 940.788
-117.326 -68.8377 940.789
16.4722 -34.2936 940.793
-139.708 -76.6228 940.794
20.3647 -31.3745 940.797
-5.42213 -36.7266 940.798
31.0687 -21.1573 940.799
-129.004 -70.7849 940.8
42.2595 -21.1572 940.801
-132.735 -76.4613 940.803
10.6337 -34.6833 940.804
20.3648 -24.5631 940.805
-93.0005 -57.1618 940.805
-129.005 -72.7314 940.806
-73.5389 -55.216 940.809
-39.4808 -55.216 940.809
46.6388 -23.1038 940.812
-113.436 -68.8395 940.813
-145.55 -63.0013 940.818
-77.5947 -58.9469 940.823
-125.115 -72.7326 940.823
-107.599 -64.9477 940.823
-109.545 -66.8943 940.823
142.491 -20.6712 940.824
-67.7014 -52.7838 940.825
-11.2607 -25.5368 940.825
-3.4759 -36.7277 940.826
-91.0566 -59.1094 940.826
-65.8529 -52.9788 940.827
-163.555 -117.984 940.834
-55.5382 -55.2175 940.834
13.2292 -30.727 940.835
38.3682 -26.9967 940.835
-190.803 -98.5218 940.839
-107.601 -61.0563 940.839
266.567 -56.6773 940.839
-89.5982 -66.4087 940.841
-139.877 -63.165 940.844
-79.2186 -53.1095 940.845
44.6941 -25.0508 940.846
-155.285 -82.4656 940.846
-99.8168 -61.0567 940.848
-77.9213 -64.463 940.848
-78.8946 -59.1111 940.851
-102.25 -76.6274 940.851
-143.609 -82.4664 940.852
-9.31491 -26.5107 940.855
-93.4923 -64.4635 940.857
-117.497 -64.7881 940.857
-101.926 -72.5734 940.858
-107.765 -70.627 940.859
35.9365 -28.4572 940.86
-56.9024 -52.9807 940.862
-3.63825 -38.5132 940.863
-137.48 -76.5315 940.869
-136.961 -82.3057 940.87
-91.061 -63.0049 940.87
-121.229 -72.7365 940.871
-121.229 -74.6827 940.872
-57.0005 -50.3539 940.874
-83.2758 -59.1124 940.875
-145.558 -64.4648 940.875
-90.8992 -61.2209 940.877
257.819 -62.5186 940.877
48.9129 -23.2677 940.877
-40.9433 -58.6261 940.879
-78.8973 -57.1663 940.883
-195.192 -104.852 940.884
-158.698 -84.9022 940.885
2.36292 -36.73 940.885
44.2094 -23.1057 940.887
6.25565 -30.8908 940.887
-83.4393 -64.7901 940.89
-99.1403 -62.9088 940.893
42.1015 -25.2144 940.896
-185.301 -91.067 940.897
-145.075 -82.4703 940.898
-13.2082 -78.5776 940.899
-167.459 -117.992 940.901
-87.009 -59.2764 940.902
-51.163 -48.409 940.902
-15.1545 -78.5783 940.904
-171.84 -101.449 940.907
-87.0093 -60.8988 940.908
1.87626 -38.1907 940.91
-115.395 -72.7395 940.911
-107.771 -66.7383 940.912
-193.251 -104.855 940.913
14.8525 -36.569 940.913
-165.029 -93.6636 940.913
-87.1724 -57.1685 940.915
35.9386 -26.999 940.915
-79.2247 -55.3844 940.917
20.3673 -28.9455 940.917
64.6484 -19.7 940.917
-83.2797 -61.0616 940.919
-105.664 -63.0085 940.925
33.0193 -26.9993 940.925
-147.514 -76.6341 940.929
-125.13 -74.6877 940.933
-99.5338 -59.2135 940.933
-143.622 -85.8803 940.939
-85.2281 -61.0629 940.94
-93.1761 -61.2253 940.941
-75.4962 -57.1703 940.944
-151.896 -78.095 940.946
-62.3578 -62.5235 940.95
-85.2293 -62.5235 940.95
-92.8528 -58.9549 940.95
-121.239 -76.6357 940.951
-136.325 -82.9618 940.953
33.0204 -30.8932 940.956
-61.3849 -48.4119 940.96
-139.733 -78.5833 940.966
-94.9634 -64.9578 940.969
-49.7067 -56.6852 940.971
-111.509 -64.9582 940.973
56.7039 -25.2163 940.973
-109.402 -68.6897 940.982
163.441 -86.8576 940.984
0.578608 -36.8961 940.985
-146.063 -69.3391 940.99
-55.1581 -52.5984 940.991
35.9416 -32.8411 940.996
-81.34 -57.1734 940.996
40.3216 -25.0549 940.999
-77.934 -63.0135 941.002
60.7611 -21.1618 941.003
-113.46 -66.9069 941.004
54.9216 -22.6218 941.008
-145.093 -81.0202 941.009
-73.4572 -52.9889 941.01
-161.639 -93.1864 941.011
-109.081 -70.8009 941.012
-97.2065 -61.1651 941.014
-74.0418 -57.1746 941.015
-84.7485 -71.2878 941.018
-49.3849 -48.5775 941.023
-157.748 -86.8613 941.023
-111.516 -66.9085 941.027
-161.318 -91.404 941.028
-91.0765 -66.4221 941.03
-103.243 -68.3687 941.03
-137.309 -78.5888 941.031
-19.0502 -76.1555 941.032
-103.243 -76.1555 941.033
-49.2234 -50.3624 941.033
-96.7545 -62.8536 941.034
-39.0034 -64.9624 941.034
41.7831 -27.0025 941.035
-139.743 -80.5358 941.035
-103.568 -70.6404 941.037
-112.004 -68.856 941.038
4.30989 -34.7893 941.038
-99.3505 -64.9627 941.04
-89.1303 -61.0694 941.04
-117.357 -66.9095 941.041
-81.3438 -64.4763 941.042
-91.0775 -64.9629 941.043
-32.1904 -68.3698 941.045
-162.618 -93.6768 941.046
-115.411 -74.6966 941.046
-4.93687 -101.464 941.046
-158.726 -117.038 941.051
10.6365 -36.5744 941.052
-16.6171 -80.0507 941.055
-171.867 -102.438 941.055
-49.3217 -52.9917 941.055
-143.478 -76.4819 941.056
-145.587 -84.431 941.057
38.3774 -30.8965 941.058
-171.381 -98.545 941.06
-75.5056 -59.1242 941.062
56.8716 -23.1099 941.064
-75.3436 -62.8556 941.064
-74.0458 -59.1245 941.066
-51.0745 -52.6029 941.068
-153.375 -91.7324 941.069
-94.9737 -66.9119 941.072
-81.1845 -62.8562 941.073
-81.5089 -58.9627 941.074
40.3247 -21.1633 941.074
-96.7592 -68.6967 941.08
-127.258 -78.4306 941.08
36.4316 -25.0569 941.08
38.865 -28.9505 941.081
-75.6697 -60.9101 941.084
58.8196 -21.1638 941.086
-167.006 -93.1939 941.086
-69.6674 -61.0726 941.088
4.31009 -32.8444 941.088
48.5993 -27.4908 941.09
-105.683 -64.9663 941.091
-132.938 -78.5939 941.093
-68.2076 -61.0727 941.093
-137.513 -80.4435 941.095
-65.7744 -55.2327 941.095
-65.2879 -59.6132 941.099
-61.3945 -55.2331 941.103
-11.4266 -40.4701 941.109
-17.1049 -42.5791 941.11
15.1799 -33.0075 941.114
-156.79 -82.976 941.114
-123.207 -68.8616 941.115
-68.2092 -59.1273 941.115
-63.6667 -57.0185 941.116
-63.3422 -55.2339 941.118
46.4593 -24.9607 941.118
-63.2206 -52.9222 941.118
-103.739 -72.7557 941.119
-113.474 -74.2159 941.122
33.0263 -28.9519 941.126
-130.996 -72.7562 941.128
-71.4552 -55.3971 941.13
-132.457 -80.5439 941.131
-131.159 -74.8658 941.134
-17.1053 -40.6334 941.134
46.6547 -28.9524 941.138
-142.192 -70.3235 941.138
66.1238 -23.5984 941.14
-155.821 -100.5 941.141
-71.6182 -57.1822 941.141
-141.219 -59.6158 941.142
-141.219 -74.7043 941.143
54.9295 -21.165 941.144
-119.804 -76.1646 941.145
-71.6186 -58.6426 941.146
-147.061 -80.5452 941.146
-89.6274 -73.2445 941.147
-139.273 -83.9524 941.147
-19.0524 -42.581 941.148
-125.158 -70.8109 941.149
-96.4419 -66.9171 941.151
-59.0614 -52.997 941.152
-155.823 -116.077 941.153
-1.53041 -36.7405 941.154
-165.558 -89.7938 941.155
-166.856 -90.7673 941.156
-35.6014 -60.5902 941.156
-89.6285 -59.1304 941.159
190.728 -86.8739 941.16
-83.7878 -62.5374 941.16
14.5318 -34.7937 941.162
-195.25 -102.45 941.163
40.3285 -23.1123 941.164
16.8032 -32.6847 941.164
13.0715 -32.8471 941.165
-58.965 -50.3694 941.165
14.5319 -38.2011 941.166
-146.091 -67.4053 941.168
-109.099 -72.7596 941.171
-2.01711 -77.1403 941.172
-113.642 -72.9219 941.172
-139.926 -61.2404 941.175
51.0374 -21.1656 941.177
-51.1778 -50.3701 941.177
-145.768 -86.2267 941.179
-65.2937 -57.1849 941.184
-123.216 -70.8138 941.185
-69.5124 -57.0227 941.187
-53.1252 -52.8043 941.187
-95.148 -70.9763 941.19
-149.745 -88.5804 941.192
-109.102 -74.7085 941.194
-111.698 -70.6522 941.195
-149.989 -74.2217 941.195
-114.943 -76.6556 941.197
-74.0563 -61.0798 941.199
-123.705 -74.7089 941.201
-119.324 -72.7621 941.202
-156.804 -78.6031 941.202
-58.8051 -55.4012 941.203
-69.5136 -59.2952 941.204
35.9497 -30.9015 941.207
-83.7921 -68.3817 941.208
-63.3484 -61.0805 941.21
-13.2126 -40.6368 941.211
-162.972 -90.7729 941.212
-107.806 -62.8655 941.214
144.497 -17.7592 941.217
-131.009 -76.6574 941.218
-191.854 -102.456 941.22
-64.323 -59.6211 941.225
-153.401 -92.7211 941.225
-96.7742 -64.8134 941.226
-57.0218 -57.1874 941.227
-36.0908 -57.6743 941.228
-130.524 -78.1185 941.229
237.472 -82.0128 941.231
-108.133 -74.2245 941.231
-108.133 -72.7643 941.232
-84.7679 -66.9232 941.233
-78.9267 -63.029 941.233
-39.0117 -57.6747 941.235
-129.064 -76.6588 941.235
-155.35 -90.7751 941.236
-49.0717 -55.4032 941.236
4.1485 -36.5815 941.238
-5.42465 -38.6909 941.24
-129.065 -74.712 941.24
52.988 -22.6274 941.241
-92.5572 -62.5429 941.243
-155.838 -93.6967 941.246
-161.68 -95.1573 941.247
-113.489 -70.8186 941.248
-169.468 -96.6176 941.249
-81.5242 -61.2453 941.25
40.1702 -27.1709 941.251
38.5476 -32.6879 941.253
-105.701 -66.4378 941.253
-65.2986 -63.0305 941.254
-141.237 -72.7663 941.259
-65.299 -64.4912 941.26
-161.682 -97.1056 941.261
-136.37 -83.9627 941.262
-171.419 -97.5929 941.265
69.0533 -21.6544 941.265
51.5292 -24.5752 941.269
-109.111 -76.6617 941.271
-117.873 -70.8203 941.271
-160.71 -88.8313 941.272
18.4278 -27.4961 941.273
-76.0096 -68.3867 941.277
41.7939 -31.3906 941.278
51.5298 -22.6283 941.279
-65.3004 -60.5982 941.28
-40.9608 -57.6775 941.281
5.77136 -34.7984 941.283
-155.358 -94.674 941.283
-125.663 -76.1759 941.284
56.8852 -29.4438 941.29
30.1114 -33.3382 941.292
49.0967 -28.4703 941.294
-172.884 -100.517 941.294
44.0664 -26.8477 941.295
-3.96459 -101.491 941.298
-77.3094 -60.924 941.299
-127.612 -80.5583 941.299
66.135 -24.5761 941.3
-139.945 -82.3436 941.303
-161.203 -99.0574 941.304
-119.337 -74.7171 941.305
32.5459 -32.8518 941.305
-162.664 -96.6237 941.307
-132.482 -82.0195 941.308
33.0327 -25.0631 941.308
-134.429 -76.6648 941.311
-83.8013 -66.4419 941.312
-191.873 -78.1255 941.313
-99.3795 -71.3102 941.314
6.25836 -32.8524 941.319
-39.0153 -62.5481 941.32
-58.9749 -56.7065 941.324
-185.548 -95.1655 941.33
-64.3303 -64.496 941.331
-55.5675 -58.6542 941.331
-15.6485 -38.695 941.341
-150.012 -93.7062 941.341
53.4806 -21.1695 941.343
18.4293 -28.9588 941.35
-144.172 -63.524 941.355
66.139 -21.1697 941.356
13.5611 -34.801 941.357
-143.199 -88.3526 941.357
58.8366 -22.6303 941.359
-61.4113 -56.7087 941.36
62.7314 -22.6303 941.361
65.1657 -24.5777 941.362
8.36835 -36.5865 941.365
-95.1657 -68.7177 941.366
-127.622 -82.5118 941.37
-106.201 -70.8277 941.371
32.7104 -34.9638 941.371
-90.6225 -71.3146 941.372
-99.7102 -67.0954 941.373
46.6665 -27.0122 941.374
-153.912 -94.6834 941.377
250.168 -70.3416 941.38
-109.124 -81.0522 941.382
34.496 -28.4731 941.385
6.09655 -36.5874 941.391
-55.5711 -57.1974 941.391
56.4045 -26.5259 941.392
64.1942 -22.6311 941.393
-68.2293 -63.0397 941.393
20.3776 -32.3681 941.394
-143.205 -91.7643 941.397
54.4575 -26.5261 941.399
-89.6514 -71.3167 941.399
40.1765 -29.1226 941.4
64.5193 -21.0085 941.402
252.122 -69.3696 941.404
44.7206 -32.3685 941.404
-149.048 -89.8177 941.405
41.7997 -28.9606 941.408
-114.969 -79.1072 941.409
55.4321 -24.579 941.414
-148.076 -71.3178 941.414
-86.7319 -62.5545 941.417
-61.4151 -53.3042 941.419
-143.857 -84.6258 941.419
-134.445 -78.1345 941.422
-71.1528 -63.5287 941.424
62.7357 -21.6581 941.425
48.6166 -24.9039 941.425
-56.5469 -58.6601 941.426
-53.6258 -54.7653 941.428
-172.422 -99.0704 941.428
-99.3917 -75.2139 941.429
-189.949 -95.6625 941.43
-153.921 -98.5838 941.431
-40.9673 -54.7655 941.431
-5.58806 -40.4839 941.432
-145.158 -88.36 941.436
-137.368 -87.8731 941.436
-157.817 -89.8208 941.438
-102.314 -75.2146 941.438
-155.871 -97.6114 941.444
-141.266 -77.1632 941.451
60.3032 -23.1194 941.453
-89.6566 -69.3733 941.454
-21.493 -76.1897 941.455
18.4314 -24.5801 941.455
-50.7062 -56.7145 941.457
147.943 -18.7376 941.459
-37.0735 -68.3999 941.459
54.461 -29.4491 941.46
-137.372 -89.823 941.46
137.233 -17.764 941.467
-19.5458 -45.0298 941.469
-69.2086 -63.5317 941.469
-83.8154 -71.322 941.469
34.986 -25.0674 941.47
-76.0254 -65.4795 941.473
-162.693 -99.0753 941.474
-122.768 -76.1915 941.477
-144.192 -64.5063 941.481
-99.3974 -72.2969 941.484
-122.769 -72.2969 941.484
-78.9478 -66.4542 941.485
-9.80817 -40.1617 941.486
-53.6292 -61.5853 941.487
-112.057 -72.2971 941.487
49.5939 -22.6335 941.492
-116.927 -65.4809 941.492
-0.0701872 -35.2931 941.497
-100.373 -63.5338 941.5
-58.4993 -51.8483 941.505
-148.091 -76.1942 941.51
-77.0023 -55.744 941.511
205.407 -84.9588 941.512
10.6419 -35.2938 941.514
-136.406 -77.1684 941.515
2.8513 -33.3462 941.517
-70.1862 -58.666 941.52
-144.198 -77.1692 941.524
-0.0701894 -36.268 941.525
-48.7623 -51.8496 941.529
-79.9254 -57.2059 941.53
57.3867 -24.5821 941.532
-18.5733 -72.3006 941.533
-152.964 -70.3531 941.534
-49.7365 -54.7715 941.535
-87.7168 -61.5886 941.537
-107.194 -63.5364 941.538
-70.1876 -55.7456 941.539
44.7271 -27.5039 941.539
-133.488 -77.1705 941.541
32.5541 -32.8603 941.545
-107.195 -71.328 941.549
-149.072 -84.9622 941.55
-131.218 -78.7947 941.554
-160.759 -93.2405 941.554
40.8324 -26.5305 941.556
-103.301 -73.2765 941.558
-165.142 -88.8585 941.559
-195.819 -103.467 941.561
-58.9898 -57.6947 941.562
43.7543 -25.0698 941.562
54.954 -23.6091 941.564
-37.0778 -60.6167 941.568
50.8965 -23.2846 941.57
-113.041 -72.3037 941.573
-163.684 -91.2948 941.575
36.9378 -32.8615 941.578
-160.764 -90.8088 941.585
-80.9042 -60.618 941.588
34.5034 -27.0183 941.588
-67.2696 -54.7747 941.588
-37.5656 -63.54 941.592
32.0688 -34.3228 941.593
-97.4614 -63.5403 941.596
44.0805 -33.0244 941.596
-87.7226 -58.6709 941.599
-145.184 -67.4362 941.6
-163.201 -88.3755 941.601
-146.158 -82.5323 941.605
12.5908 -34.8102 941.605
-138.367 -115.159 941.607
-189.499 -99.0894 941.608
-14.6791 -37.2451 941.608
-130.576 -74.2543 941.609
-57.5318 -51.8541 941.61
-143.237 -83.9937 941.61
54.7943 -25.2334 941.61
36.939 -27.019 941.61
-100.709 -72.956 941.611
57.3918 -21.6625 941.615
40.348 -30.9149 941.615
42.7829 -24.5843 941.616
-77.9849 -61.5938 941.617
-141.94 -76.5276 941.618
62.7486 -20.6886 941.619
-60.4542 -50.3937 941.619
-93.2434 -63.2173 941.619
36.9395 -23.6105 941.622
189.849 -86.917 941.627
-137.072 -84.6445 941.627
-77.3367 -65.1658 941.629
15.513 -34.8112 941.632
-135.45 -76.6912 941.635
-131.067 -80.5873 941.637
-167.103 -95.1966 941.637
17.461 -33.3505 941.638
42.784 -27.0199 941.641
56.9065 -28.4808 941.642
-81.8829 -63.5434 941.643
-105.745 -67.4394 941.644
-126.685 -79.127 941.645
-93.5707 -59.6478 941.646
-136.425 -81.075 941.646
-142.269 -75.2312 941.646
-76.0396 -63.5438 941.648
46.3557 -27.1825 941.651
52.5244 -21.1765 941.656
53.0113 -23.6114 941.656
-75.0663 -61.5964 941.657
-126.687 -80.589 941.658
-139.349 -84.5824 941.658
162.584 -86.92 941.659
-103.799 -68.9015 941.661
-172.465 -97.6341 941.662
-57.5351 -55.266 941.663
-122.792 -74.7456 941.663
-125.227 -78.6416 941.664
-191.296 -103.154 941.666
-133.182 -82.7 941.666
-170.842 -96.9853 941.668
-40.0037 -59.6493 941.669
37.9154 -28.9687 941.67
4.79975 -37.2476 941.671
-115.65 -78.4799 941.672
-94.5475 -70.3634 941.673
34.5066 -30.9169 941.677
-72.1461 -54.293 941.68
-173.442 -99.584 941.681
12.5918 -31.404 941.681
-149.742 -91.1427 941.682
-100.393 -68.4165 941.687
7.72187 -37.2483 941.689
-55.1018 -61.1117 941.692
-126.692 -82.5401 941.692
-88.7053 -63.0596 941.692
-87.4068 -67.1183 941.694
-70.1992 -57.7029 941.695
58.8577 -23.6124 941.697
-60.7839 -52.1836 941.697
215.188 -84.0015 941.697
55.1242 -27.1838 941.698
-71.6606 -59.6511 941.698
-143.251 -116.145 941.701
-79.9399 -54.2941 941.701
6.74796 -34.8139 941.703
-192.927 -102.996 941.704
14.5402 -32.3789 941.707
17.4623 -30.4309 941.708
-7.37548 -40.6585 941.714
-65.9799 -61.2754 941.714
-92.9282 -65.1717 941.714
32.0729 -30.918 941.714
-39.5187 -60.6262 941.715
-97.4738 -66.9574 941.715
-110.136 -76.6978 941.716
-63.058 -57.3796 941.717
-58.9996 -59.1653 941.718
42.7875 -23.6129 941.719
-77.0195 -63.0617 941.721
-116.955 -70.8542 941.722
-135.463 -75.2375 941.725
48.1451 -30.9185 941.726
-2.01831 -39.198 941.73
-98.9366 -68.9068 941.733
-20.5254 -76.2123 941.734
-4.94048 -41.1463 941.734
-63.3837 -61.1144 941.734
-71.6633 -61.1145 941.734
46.3599 -28.8085 941.737
-100.723 -71.0179 941.74
55.1267 -28.8085 941.742
-18.9021 -44.3936 941.743
-135.141 -78.8112 941.75
-98.4517 -65.499 941.753
30.1261 -24.5879 941.753
61.2968 -23.1268 941.758
42.3024 -32.8679 941.761
40.8414 -28.4845 941.763
65.1936 -21.6659 941.765
-60.4638 -54.7852 941.768
34.0231 -25.0754 941.773
-152.029 -70.3709 941.773
9.67078 -36.2777 941.777
-57.0551 -61.1173 941.777
64.8698 -23.2897 941.777
-93.0968 -66.9619 941.778
-164.693 -90.8274 941.779
-134.983 -80.5995 941.781
-14.6818 -34.3297 941.782
62.7596 -23.6145 941.782
-163.395 -97.3219 941.783
-2.99253 -39.2003 941.783
-27.3452 -64.5271 941.785
0.41682 -39.2004 941.786
-87.4158 -64.8522 941.791
-113.555 -75.2431 941.795
-81.4092 -65.5021 941.797
-117.452 -72.8082 941.8
-151.06 -78.1662 941.804
-100.405 -64.5284 941.804
-111.121 -68.9122 941.807
-111.121 -71.3477 941.809
-36.1132 -72.8092 941.811
-83.1965 -67.1269 941.813
-51.3749 -57.3854 941.814
-107.225 -67.4516 941.815
-51.3099 -54.9827 941.815
-123.461 -72.9718 941.815
-155.283 -92.4548 941.819
-3.96678 -102.521 941.819
-115.993 -76.7063 941.82
-39.5231 -66.9651 941.821
-127.196 -84.4996 941.822
-49.1022 -57.3861 941.824
257.105 -65.0168 941.825
-119.241 -76.8693 941.827
-170.871 -99.2748 941.828
-77.5152 -66.9655 941.828
-91.1535 -67.4526 941.828
-69.7223 -65.0174 941.832
-89.0433 -67.1281 941.834
37.922 -33.3575 941.835
-75.4052 -64.8555 941.836
-85.7965 -65.0177 941.838
-85.7966 -66.9662 941.839
-52.9998 -60.9589 941.839
-133.044 -84.5014 941.84
-53.1622 -59.1732 941.842
257.11 -62.5828 941.844
48.8819 -26.7821 941.844
-57.2216 -59.3356 941.845
6.74899 -37.2546 941.847
56.9188 -30.9225 941.847
-145.709 -90.347 941.847
-107.23 -72.8121 941.851
-83.2 -63.2329 941.853
-91.643 -60.6351 941.853
-196.855 -103.499 941.856
-40.0117 -65.0193 941.856
-127.201 -86.4513 941.857
44.2551 -30.9227 941.857
-83.2006 -69.0785 941.859
-97.4891 -65.5067 941.863
-160.811 -95.2196 941.864
-103.659 -74.5991 941.864
-161.299 -101.065 941.864
-138.73 -82.7175 941.865
-121.357 -78.6585 941.866
-66.3152 -57.2263 941.866
-121.357 -80.6069 941.867
42.4697 -30.7608 941.868
57.0826 -27.1888 941.869
-145.225 -86.9394 941.87
-60.9574 -59.1749 941.87
-110.154 -70.8654 941.871
-113.564 -76.7104 941.871
-48.7801 -47.9717 941.872
36.9494 -30.9233 941.875
-185.656 -93.2722 941.875
50.9131 -25.2407 941.877
-95.0551 -72.8143 941.878
-88.7229 -64.5336 941.879
-60.9582 -63.0725 941.882
-81.4168 -66.9696 941.885
-79.4687 -61.1244 941.887
-107.558 -74.9258 941.887
-59.0103 -61.1245 941.889
-2.01865 -82.0702 941.89
-53.1651 -57.2278 941.892
-53.0029 -55.4419 941.894
-149.127 -88.8905 941.898
-191.506 -101.069 941.902
-139.385 -60.6382 941.902
-69.8902 -62.9116 941.904
-149.615 -76.7135 941.905
-111.62 -76.7134 941.907
32.0795 -28.9759 941.907
-62.9084 -59.1773 941.909
-73.1379 -61.1258 941.909
-37.5784 -56.7418 941.91
-138.899 -86.456 941.911
-136.951 -86.4562 941.912
-59.0118 -63.0745 941.913
-65.3444 -65.1854 941.913
-110.16 -72.8176 941.919
34.5155 -32.8733 941.92
-73.1388 -57.2295 941.921
53.0263 -25.0795 941.922
68.6145 -23.131 941.925
-185.665 -95.2258 941.925
31.1059 -19.2341 941.925
-63.3966 -63.0756 941.926
-49.2702 -63.0756 941.929
-98.4701 -66.9726 941.929
-141.824 -78.6638 941.929
-145.722 -92.7907 941.931
46.2072 -30.9254 941.935
-129.16 -82.5614 941.936
38.4132 -36.7711 941.937
-157.901 -80.6132 941.938
-65.6709 -63.2388 941.939
-41.4768 -61.1278 941.94
67.1544 -21.1828 941.942
-129.162 -80.6136 941.946
-129.162 -78.6652 941.946
-35.4688 -57.0686 941.946
-80.9353 -59.6671 941.95
-51.2199 -59.18 941.951
-170.894 -100.912 941.952
-17.6073 -80.1271 941.952
-71.8425 -62.9149 941.954
-149.622 -86.4599 941.954
-146.213 -88.4086 941.954
44.2597 -28.9775 941.957
13.0829 -32.8749 941.957
-88.7304 -59.1805 941.959
-140.368 -67.462 941.96
53.0285 -27.029 941.962
32.0814 -25.0805 941.962
-65.5913 -58.9371 941.962
-141.668 -80.453 941.966
-155.957 -86.9483 941.966
-81.4239 -70.8725 941.966
-163.753 -99.1277 941.972
-191.521 -104.974 941.972
-153.036 -93.7691 941.973
146.075 -39.2083 941.975
-168.95 -97.342 941.976
-53.1698 -63.0789 941.977
64.5586 -25.2432 941.977
-105.49 -72.7243 941.977
-103.996 -76.8816 941.979
-125.107 -76.8818 941.98
-77.5278 -68.9249 941.98
48.158 -32.8755 941.98
-117.475 -74.7709 941.982
-39.6922 -63.2417 941.983
46.2096 -32.8756 941.984
-101.204 -74.6738 941.984
-59.5034 -54.7977 941.985
-94.5788 -69.4125 941.986
-113.578 -78.6687 941.987
-133.552 -80.6173 941.987
-67.2981 -57.2336 941.987
58.876 -25.0811 941.988
48.6459 -29.4657 941.99
-163.269 -95.2322 941.991
-144.27 -62.5926 941.991
-165.218 -92.7966 941.992
-33.6843 -69.4129 941.992
18.4419 -30.9273 941.993
-75.5807 -66.9775 941.996
-138.912 -88.413 942
-77.0424 -59.6703 942.002
66.8341 -22.9706 942.002
-115.529 -82.5676 942.006
-38.0693 -68.4396 942.006
-39.6933 -57.0723 942.006
149.004 -23.1329 942.008
-15.1724 -72.8243 942.009
-60.9663 -61.1323 942.01
-92.6329 -60.6454 942.013
32.5703 -38.7226 942.014
17.1434 -34.9878 942.016
-71.6849 -65.0303 942.018
-51.2236 -63.0816 942.019
-73.1465 -59.1844 942.019
32.0833 -27.0307 942.02
51.0832 -27.0307 942.02
-147.684 -86.4662 942.02
-147.685 -69.4151 942.021
-98.8044 -70.7142 942.021
70.5703 -23.1334 942.022
-89.0613 -70.7145 942.024
36.6308 -29.142 942.027
-100.916 -76.7232 942.028
-98.4806 -60.6464 942.029
-152.071 -84.0311 942.03
-111.472 -72.9884 942.03
-51.2244 -61.1339 942.033
18.4427 -23.6208 942.033
68.6224 -25.0825 942.034
-173.508 -101.57 942.035
-5.91643 -25.5696 942.036
-131.123 -82.5702 942.037
-110.174 -74.7753 942.038
-159.38 -90.3655 942.038
-169.124 -95.2373 942.039
78.367 -23.1339 942.043
-67.3022 -61.1345 942.045
-100.431 -66.4937 942.045
-186.177 -90.8531 942.049
-141.843 -84.5201 942.049
68.4612 -21.0229 942.049
-165.228 -95.2383 942.05
-82.8927 -65.5197 942.051
-169.126 -101.085 942.051
-97.0218 -70.879 942.054
-87.2779 -74.7767 942.055
-81.4319 -68.9306 942.058
64.7268 -27.0319 942.059
-142.332 -73.3159 942.065
-67.3036 -63.0848 942.065
-157.923 -82.5728 942.065
-119.434 -80.6239 942.065
-54.9615 -59.3498 942.071
-111.64 -74.7782 942.075
-7.37806 -26.5452 942.077
72.5246 -23.1351 942.09
-143.635 -88.5839 942.09
49.1384 -25.5712 942.094
60.8316 -25.0841 942.096
60.8317 -27.0329 942.098
-15.6611 -79.1651 942.099
-1.04467 -77.2165 942.101
-110.182 -69.4212 942.104
-54.6388 -54.8048 942.105
-49.2794 -59.1897 942.105
-147.698 -88.4231 942.106
-153.708 -94.7571 942.111
-151.11 -100.604 942.115
51.0883 -28.9826 942.116
-104.986 -71.0463 942.116
40.3695 -36.7781 942.116
-164.753 -118.145 942.118
-143.802 -99.1429 942.118
-147.7 -84.5264 942.121
-119.441 -78.6798 942.121
-55.1269 -63.0885 942.121
72.5268 -28.9827 942.121
-143.641 -92.8097 942.128
-135.034 -82.5783 942.129
62.7827 -25.085 942.13
-123.502 -76.894 942.13
-145.753 -80.1423 942.131
239.161 -80.6295 942.133
-109.86 -80.4674 942.133
-11.7639 -78.6811 942.134
-127.239 -88.4256 942.135
-123.341 -78.6811 942.136
-165.243 -97.1961 942.136
32.5746 -36.7789 942.137
-155.011 -84.0407 942.137
148.634 -16.8021 942.138
-101.221 -78.5843 942.142
-91.3463 -68.7743 942.142
-2.99367 -84.5284 942.144
-59.0261 -65.039 942.144
-161.834 -118.148 942.145
-173.203 -103.206 942.145
-159.885 -87.9394 942.146
-143.076 -86.7219 942.153
53.0394 -28.9836 942.154
-103.041 -78.8449 942.154
-89.236 -74.7846 942.155
-93.1342 -70.8867 942.156
-89.0738 -68.7755 942.158
-193.345 -106.781 942.159
-159.401 -84.0429 942.161
-131.14 -84.5303 942.164
-79.4922 -65.0404 942.165
18.4453 -21.1877 942.166
-133.09 -86.4795 942.166
-13.3884 -36.6177 942.166
-100.931 -80.6325 942.167
-19.0734 -75.2731 942.17
-149.657 -78.1968 942.172
-98.8203 -74.6236 942.173
-67.3114 -59.194 942.173
-149.496 -74.949 942.177
-69.7481 -66.9902 942.177
-155.343 -95.0887 942.178
40.3721 -32.8825 942.179
-177.919 -108.895 942.181
-73.6461 -65.0416 942.181
-49.2833 -61.1434 942.182
-47.4315 -54.6142 942.183
-117.5 -76.7364 942.188
-157.456 -90.867 942.189
-41.6503 -59.3576 942.191
-98.8227 -73.0013 942.196
54.991 -34.832 942.196
-60.8162 -57.4088 942.197
-159.244 -82.7469 942.198
-135.044 -84.5336 942.201
-79.9823 -63.0938 942.201
-121.4 -82.5848 942.202
64.7368 -28.985 942.204
-136.831 -90.5436 942.204
-91.3526 -70.7281 942.205
-91.1901 -74.7888 942.207
-27.3582 -66.9928 942.208
-3.48098 -40.68 942.208
-75.5976 -70.8908 942.209
-105.516 -69.0395 942.213
-1.53179 -72.353 942.214
20.3953 -23.6254 942.214
-97.2009 -73.003 942.217
34.5266 -29.4728 942.217
-107.759 -76.7388 942.218
44.2721 -34.8329 942.218
-33.6923 -59.197 942.223
72.5348 -27.0365 942.225
-153.564 -90.3831 942.226
146.114 -18.7529 942.227
-41.7329 -56.7606 942.227
-67.5099 -65.1423 942.228
-93.1413 -72.8413 942.229
-26.3836 -68.4558 942.229
-51.2353 -65.045 942.232
-167.696 -91.8457 942.232
36.4765 -34.8334 942.235
-55.1336 -65.0453 942.235
-109.71 -78.6895 942.236
76.4339 -23.1386 942.237
-144.308 -59.6853 942.238
-49.2863 -65.0457 942.24
-161.363 -103.054 942.241
-29.7951 -78.2026 942.243
264.692 -52.5387 942.244
-167.212 -101.106 942.247
78.384 -25.0882 942.249
70.5875 -25.0882 942.25
56.9434 -34.8342 942.252
258.684 -61.1481 942.253
-143.011 -74.63 942.256
-14.6892 -38.7328 942.259
-163.478 -93.1478 942.26
140.759 -17.2916 942.26
-159.417 -92.3358 942.26
62.7918 -27.0377 942.267
44.2743 -36.7838 942.268
-79.9882 -59.2 942.27
144.66 -18.7539 942.276
42.8129 -28.9873 942.277
70.5895 -21.1904 942.277
-153.475 -96.9181 942.279
58.8944 -30.9367 942.282
38.4273 -34.8351 942.283
80.3361 -23.1398 942.284
-136.842 -88.6022 942.285
82.2861 -23.14 942.289
-1.53215 -40.196 942.29
-165.27 -99.1611 942.29
34.529 -34.8355 942.292
-140.417 -59.6888 942.293
-152.113 -77.2323 942.294
-57.0865 -63.1002 942.296
-173.069 -106.959 942.298
-153.414 -99.3246 942.299
84.2363 -23.1402 942.301
-125.312 -80.6441 942.302
-81.9406 -80.6445 942.307
-155.526 -96.7262 942.307
-97.0477 -74.7966 942.307
-97.5353 -69.4363 942.31
-73.6564 -63.1013 942.312
-57.0875 -65.0507 942.313
54.9978 -32.887 942.313
58.8964 -27.0393 942.313
266.011 -52.3804 942.316
-83.2411 -70.7363 942.317
-111.669 -78.6964 942.32
-33.2087 -61.1524 942.32
-115.568 -86.4937 942.32
-143.345 -90.3926 942.322
-177.264 -107.059 942.323
-154.067 -87.9561 942.325
-139.123 -92.8292 942.325
76.441 -25.0902 942.325
32.5811 -40.6849 942.325
66.6947 -27.0396 942.325
-54.6516 -57.2543 942.327
-33.5336 -63.2647 942.328
-138.961 -94.7792 942.328
80.34 -25.0903 942.328
-79.5063 -68.9507 942.332
36.4802 -36.7865 942.332
-179.41 -108.912 942.333
-161.867 -85.0331 942.335
-138.962 -90.3939 942.336
66.6958 -19.7298 942.341
-97.0514 -78.6983 942.343
70.5944 -27.04 942.343
-171.128 -106.964 942.345
-85.3561 -63.5911 942.349
66.8587 -25.2532 942.349
-141.401 -70.9014 942.351
267.971 -54.819 942.352
38.4301 -38.7367 942.354
50.6138 -32.8884 942.354
40.3797 -34.8378 942.355
-73.66 -67.0033 942.357
30.6328 -40.6865 942.359
-104.363 -112.327 942.36
46.2282 -36.7875 942.36
-62.9387 -65.0542 942.362
264.562 -54.3323 942.362
-89.0932 -72.6893 942.362
-141.208 -88.3496 942.363
-166.746 -118.176 942.368
2.52911 -38.9 942.37
55.0009 -30.9397 942.37
-79.672 -67.1664 942.372
-133.119 -88.448 942.372
74.4954 -23.1419 942.372
-77.56 -72.8523 942.372
-102.903 -80.6506 942.375
-13.2288 -81.1377 942.375
-91.2065 -72.8529 942.376
-85.5209 -70.7409 942.377
42.3302 -34.8389 942.379
-145.304 -78.7014 942.379
260.668 -57.2576 942.38
-155.441 -98.8779 942.381
-35.648 -69.4418 942.384
148.738 -21.0303 942.384
-67.3264 -67.0051 942.385
-93.157 -74.8031 942.387
-131.172 -86.5004 942.393
-152.129 -69.4425 942.393
-90.7211 -82.6016 942.397
50.6161 -30.9405 942.397
-77.5624 -70.905 942.399
-87.3099 -70.9052 942.399
-13.7167 -72.3672 942.4
149.066 -25.0922 942.401
-59.0423 -67.0064 942.401
-93.1589 -68.9563 942.409
-41.3352 -54.8223 942.415
-125.327 -82.6038 942.419
98.8682 -21.1936 942.419
-13.2294 -33.3782 942.42
-119.479 -82.6039 942.42
-89.2612 -76.7552 942.421
142.733 -18.7567 942.422
-77.5644 -74.806 942.423
-85.3626 -68.9577 942.424
-41.4981 -67.0082 942.426
-113.631 -80.6549 942.427
-115.581 -80.6549 942.428
-97.0603 -76.7559 942.428
-87.4751 -63.2715 942.429
140.785 -20.7065 942.434
-71.7167 -67.0086 942.436
-160.909 -97.2269 942.437
-151.649 -92.3532 942.437
-147.262 -82.6055 942.438
-87.3135 -76.7567 942.438
18.9385 -27.0433 942.442
-17.1289 -72.3705 942.443
-4.9442 -80.1689 942.444
-159.448 -94.7905 942.444
-53.1963 -65.0597 942.445
-169.197 -118.186 942.446
-157.499 -88.9423 942.447
-171.146 -118.673 942.447
-149.603 -94.986 942.447
-127.281 -92.3544 942.449
-47.3477 -63.1105 942.45
-67.331 -68.9594 942.452
48.4746 -34.7442 942.454
-107.493 -78.8053 942.455
-64.8946 -67.0102 942.457
68.6534 -27.0434 942.459
-131.182 -88.4562 942.46
-83.4163 -74.8091 942.461
-81.4666 -72.8596 942.462
-129.233 -86.5069 942.464
78.4021 -27.0436 942.467
-183.335 -118.432 942.467
-105.838 -76.7593 942.47
-170.988 -103.242 942.472
-75.4563 -69.1234 942.472
-147.268 -72.3728 942.473
48.1832 -38.7417 942.474
74.5039 -27.0439 942.48
149.078 -19.2457 942.481
-139.471 -62.6253 942.482
58.9071 -28.9937 942.485
40.3856 -38.7425 942.494
60.8574 -28.9941 942.494
-60.9983 -65.0637 942.502
136.896 -18.2705 942.507
-95.1185 -78.7121 942.507
-105.55 -74.9102 942.508
70.6068 -28.9945 942.509
-109.742 -82.6117 942.51
53.0598 -30.9443 942.515
56.9592 -32.8941 942.516
-145.812 -98.6975 942.517
-127.29 -90.4112 942.517
62.8085 -30.9445 942.518
60.8591 -30.9444 942.521
-75.6229 -72.8641 942.524
-157.512 -92.3618 942.525
-83.4221 -72.8647 942.53
-149.421 -96.944 942.53
60.8597 -32.8948 942.531
38.4374 -42.6436 942.533
-43.2899 -57.429 942.533
-22.4926 -100.649 942.534
-167.263 -97.2375 942.538
-24.4425 -72.378 942.54
50.624 -36.7946 942.541
-85.2109 -76.6029 942.544
266.563 -54.8305 942.545
46.2374 -34.8451 942.547
-47.2552 -56.975 942.549
18.9407 -25.5836 942.549
88.4507 -23.0489 942.551
76.4596 -27.046 942.551
-115.596 -84.5652 942.552
