ply
format ascii 1.0
comment Created by Open3D
element vertex 1614
property double x
property double y
property double z
end_header
0.0532165 -0.0248762 0.584868
0.0295018 -0.0348674 0.587423
0.0435656 -0.00688632 0.583785
0.0455071 0.00398326 0.582933
0.0434461 -0.00880982 0.584258
0.0414688 -0.0258102 0.585481
0.0554417 -0.0418319 0.58522
0.0711605 -0.0385952 0.582031
0.0636981 -0.0339534 0.57983
0.0485179 0.0211677 0.579793
0.0244619 -0.0218396 0.580497
0.0574297 -0.0339415 0.58375
0.0364397 -0.0149003 0.58491
0.0442283 0.0149063 0.579994
0.0266564 -0.0344801 0.587526
0.060509 -0.0408 0.580866
0.0434888 -0.0027725 0.583605
0.0337941 0.0091164 0.583604
0.0225204 -0.0228989 0.580729
0.0454559 0.0189355 0.580357
0.0141773 -0.0110568 0.589555
0.034517 -0.0128119 0.584935
0.0567531 0.00994757 0.579307
0.0570235 0.0134635 0.575989
0.0484789 -0.0228195 0.585291
0.0173212 -0.0248528 0.582549
0.0535637 0.0068166 0.580441
0.0402262 -0.0362075 0.587221
0.0524353 0.00502323 0.581237
0.0643568 -0.0296228 0.583083
0.0573847 0.0142235 0.576626
0.0403454 -0.0287618 0.586012
0.0544591 0.020456 0.579478
0.0345569 -0.00978824 0.584773
0.0255616 -0.0299047 0.585061
0.031625 -0.0117828 0.584535
0.0425709 -0.0248672 0.585548
0.0635351 -0.032742 0.582656
0.026524 -0.0169769 0.580595
0.0294175 -0.0118493 0.58356
0.0244634 -0.0228912 0.580532
0.0534644 -0.0358855 0.58593
0.0424997 -0.0238287 0.585468
0.0205336 -0.00874574 0.584463
0.048555 -0.021864 0.585166
0.0645961 -0.028758 0.583884
0.0505168 0.00894383 0.577338
0.0362812 0.0121579 0.584792
0.0663806 -0.0440333 0.582328
0.0394942 -0.0197535 0.585369
0.0575638 -0.038759 0.5845
0.0516911 -0.0218684 0.585285
0.0264569 -0.0318716 0.585635
0.0373706 -0.0278651 0.585961
0.0648447 -0.0322782 0.582051
0.0186255 -0.00888477 0.584498
0.0414802 -0.0189617 0.585213
0.0195227 -0.0229038 0.580852
0.0503449 0.0149583 0.576225
0.0464873 -0.00684434 0.583765
0.0451095 0.00603617 0.58234
0.0684815 -0.0300616 0.583557
0.0464958 -0.0288572 0.585899
0.049472 -0.0247423 0.585279
0.0292785 -0.0227181 0.583795
0.0515646 -0.0268364 0.585521
0.0694837 -0.0387579 0.579963
0.0244503 -0.0141517 0.584318
0.0290547 0.00478123 0.588431
0.0155547 -0.0238051 0.585482
0.0345088 -0.0119019 0.584796
0.0604206 -0.046418 0.585832
0.0193354 -0.0168586 0.581539
0.032493 -0.00673341 0.584622
0.0665802 -0.0317311 0.583748
0.0425907 -0.0328193 0.586342
0.0296149 0.00418811 0.583489
0.057258 0.0131488 0.576552
0.0245492 -0.0308118 0.58544
0.0274667 -0.019892 0.580581
0.0637246 -0.0467212 0.584889
0.0537935 -0.0248984 0.585391
0.0603138 -0.0441433 0.585384
0.0213557 -0.0324879 0.585832
0.0361516 -0.0158136 0.585142
0.045589 -0.0249382 0.585437
0.0570048 -0.027904 0.584963
0.0435349 -0.0338304 0.586358
0.0618058 -0.0340669 0.581768
0.0224828 -0.00973928 0.583647
0.0483316 -0.0294743 0.586125
0.0365707 -0.00370903 0.584244
0.0336006 -0.0359566 0.587254
0.0612959 -0.032652 0.583355
0.0484628 0.0151009 0.575982
0.0214768 -0.0238072 0.580917
0.0157444 -0.0218067 0.583633
0.0316891 -0.0228581 0.584287
0.0194724 -0.00775057 0.584671
0.035586 -0.0258237 0.585788
0.0216671 -0.0161925 0.580651
0.0312632 -0.0169969 0.584228
0.0405206 -0.00487163 0.583964
0.0199821 -0.0046604 0.589984
0.024473 -0.0238008 0.580758
0.0386289 0.00504077 0.583269
0.0415116 -0.0228132 0.585373
0.0197832 -0.00823729 0.584112
0.0455774 0.00232739 0.583307
0.0712185 -0.0365189 0.582505
0.0374091 -0.0377702 0.587246
0.0525044 0.0191048 0.576633
0.0703003 -0.0406678 0.581551
0.062633 -0.0417732 0.580724
0.0613417 0.0128126 0.580222
0.0382525 -0.020342 0.584891
0.0247901 0.000218581 0.588284
0.0738654 -0.0357405 0.579647
0.0407612 -0.0117076 0.584013
0.0514896 -0.0249444 0.585287
0.0474982 0.0219389 0.579652
0.0486752 -0.00581051 0.582982
0.0613795 0.013217 0.579871
0.0526478 -0.0226242 0.585269
0.0666595 -0.0435581 0.58161
0.0515315 0.00622477 0.581209
0.0394687 -0.0377264 0.58724
0.0375634 0.00217761 0.58358
0.0595769 -0.0408339 0.581539
0.0155542 -0.0127649 0.584043
0.0157827 -0.0197527 0.583562
0.0434232 0.0152482 0.580455
0.0344318 -0.0328428 0.586762
0.0114268 -0.0258576 0.586557
0.0323449 0.00719741 0.583508
0.0465275 0.0172081 0.578759
0.0507503 0.00628484 0.581208
0.0685617 -0.0326728 0.583727
0.0693023 -0.0342071 0.580745
0.0387259 -0.0177812 0.58519
0.0594735 -0.0258089 0.585452
0.0118903 -0.0257459 0.58574
0.0423915 -0.0178758 0.584987
0.0622516 -0.0464541 0.585015
0.0435938 0.000216812 0.583541
0.0354793 -0.00275885 0.584033
0.065487 -0.0438764 0.581743
0.0436159 -0.00574361 0.583836
0.0396154 0.0142012 0.581818
0.0534663 0.0170917 0.575701
0.0407757 0.0158622 0.582067
0.0633514 -0.0289357 0.583817
0.042642 -0.0189839 0.584967
0.0481958 0.0227344 0.580837
0.0434361 -0.0227838 0.585482
0.0464534 -0.022817 0.585365
0.0349772 0.0108149 0.585735
0.0523335 -0.0434639 0.586834
0.0285899 -0.0276102 0.585144
0.0285879 -0.00193502 0.58433
0.0430147 -0.0133647 0.583869
0.0655492 -0.0336807 0.580297
0.0365242 -0.0279056 0.586267
0.0436017 -0.000839108 0.583645
0.043192 -0.0309972 0.586275
0.0518511 0.0199368 0.578074
0.0627449 -0.0455896 0.584916
0.0495239 0.0071539 0.580764
0.0565445 0.00619091 0.580856
0.0233894 -0.00387459 0.58437
0.0134635 -0.0218587 0.585025
0.0365666 -0.0289168 0.586339
0.0326218 0.00840991 0.586938
0.0434558 -0.0258218 0.585746
0.0497615 0.0233651 0.581591
0.0107727 -0.0248027 0.586708
0.0375236 -0.0188438 0.585312
0.0363355 -0.0167129 0.584855
0.048773 0.00946072 0.577009
0.042899 0.0188785 0.582298
0.0583214 0.00906024 0.580013
0.0294304 -0.0148724 0.583816
0.0293412 0.00508234 0.588077
0.0304489 -0.0209238 0.584251
0.0334347 -0.0124884 0.585235
0.0604808 -0.043726 0.584659
0.0313919 -0.0121563 0.583814
0.0145088 -0.0157962 0.584497
0.0454206 -0.0368291 0.586485
0.0516634 0.0189897 0.576534
0.0626968 -0.0311287 0.583062
0.0682655 -0.0434814 0.583001
0.0217872 -0.00674039 0.585223
0.0343286 0.00989419 0.585003
0.0643738 -0.0326949 0.582328
0.0737502 -0.0401722 0.578743
0.0427035 -0.0288128 0.586227
0.031391 -0.000839287 0.583797
0.0487815 -0.0367424 0.58607
0.0435434 -0.0328613 0.586416
0.0345505 -0.0258386 0.585503
0.0513888 0.0170438 0.576241
0.0614534 -0.031186 0.584135
0.05843 0.0122291 0.578968
0.0694148 -0.0338104 0.58253
0.0185898 -0.0170117 0.582668
0.0555666 0.0154076 0.576319
0.0593902 -0.0396991 0.581673
0.035751 -0.0199489 0.585186
0.0395674 -0.0328256 0.586455
0.0265698 -0.0298243 0.585065
0.0526488 -0.0380229 0.586545
0.0515045 0.00539568 0.580905
0.0364955 -0.017982 0.584837
0.0645287 -0.0357179 0.579888
0.0524329 0.0199308 0.577898
0.0619943 -0.0343055 0.580716
0.0533215 0.0174895 0.576202
0.0414125 0.00522975 0.582943
0.033504 -0.000839341 0.583808
0.0637034 -0.028717 0.584278
0.015829 -0.0207298 0.583043
0.0424867 0.00624216 0.582836
0.0474369 -0.0367569 0.586302
0.0564975 -0.0326035 0.585189
0.0555003 -0.0257908 0.585041
0.0515356 0.00740552 0.579567
0.0527855 0.0141347 0.576042
0.0334858 -0.0127848 0.584953
0.0610775 0.0173217 0.580562
0.0284023 -0.0170019 0.584396
0.0445373 0.003292 0.583256
0.03244 -0.0157738 0.583667
0.0536146 0.0151565 0.575832
0.0524764 -0.0419401 0.586735
0.0665004 -0.0427128 0.580746
0.0155693 -0.0157992 0.584608
0.040364 -0.00595202 0.584194
0.0570292 0.0156981 0.576046
0.0314996 -0.0107342 0.585255
0.0145026 -0.0130713 0.584245
0.0225 -0.00914282 0.584093
0.0514588 0.0220216 0.579638
0.0364803 -0.0158086 0.584956
0.0137876 -0.0285567 0.585948
0.0565204 -0.0387685 0.584645
0.0255372 -0.00491926 0.584504
0.0277565 -0.0229673 0.582464
0.0483493 -0.0338583 0.58634
0.0400159 -0.00219864 0.584151
0.0544313 -0.0249339 0.585335
0.063513 -0.0436949 0.581429
0.0514581 0.000216596 0.58293
0.051541 -0.042717 0.586692
0.0196826 -0.00568537 0.58561
0.0164787 -0.0108379 0.583735
0.056469 -0.0348609 0.584539
0.0727143 -0.0407097 0.583877
0.0195021 -0.00673477 0.584735
0.0544992 -0.032781 0.585658
0.0375031 -0.0188335 0.584991
0.0451535 0.0173147 0.580326
0.0577159 -0.0299222 0.584728
0.0525556 -0.0368344 0.585928
0.0325712 -0.0309152 0.586635
0.0525773 -0.0247829 0.585046
0.0475197 -0.00385582 0.583597
0.0545397 -0.0297531 0.585649
0.0356453 -0.027597 0.585935
0.050459 -0.0427957 0.587377
0.0485724 -0.0248978 0.585375
0.0277472 -0.015661 0.58396
0.048521 -0.0329941 0.586217
0.0365196 -0.00397608 0.584039
0.0443991 0.00107828 0.583363
0.0523864 0.0131379 0.576074
0.05271 0.0131933 0.576263
0.0526068 0.000178851 0.582721
0.0425311 -0.0258119 0.585521
0.0526334 -0.0435998 0.587642
0.0705187 -0.030887 0.584191
0.0425491 -0.0297592 0.585768
0.0565641 0.00786672 0.580441
0.0276207 -0.0178261 0.581719
0.0456736 0.0102808 0.581217
0.0400169 -0.00416148 0.584166
0.0605679 -0.0308688 0.583846
0.0587636 0.0101135 0.580235
0.0382016 -0.00793536 0.584113
0.0496188 -0.0217149 0.585226
0.0394928 -0.00380717 0.583857
0.0183332 -0.0230684 0.581217
0.0591156 -0.0358812 0.581929
0.0469721 -0.00582354 0.584289
0.0425416 -0.0378537 0.586859
0.0518546 0.0236606 0.581463
0.0723333 -0.038438 0.584213
0.0234313 -0.00492121 0.584731
0.0276944 0.00294094 0.585396
0.0115556 -0.0196768 0.584891
0.0366061 -0.00499002 0.583947
0.041376 -0.0298877 0.586309
0.0177458 -0.00800285 0.584632
0.0602898 -0.0358639 0.581649
0.0545561 -0.033864 0.585826
0.0375602 0.00628101 0.582945
0.0677629 -0.0417577 0.579989
0.0544946 0.00622007 0.580768
0.0212633 -0.0145578 0.583299
0.0593403 -0.0368297 0.582659
0.043401 -0.0241261 0.585008
0.0194886 -0.0279658 0.585466
0.0315302 -0.0148664 0.583581
0.0167406 -0.0309794 0.58594
0.0505101 0.0112386 0.57641
0.0466737 0.00212555 0.583077
0.0275219 -0.0229392 0.58175
0.0286375 -0.000990627 0.584059
0.0474796 -0.0407941 0.586828
0.0495843 -0.0398084 0.586608
0.0703529 -0.0309879 0.583817
0.0308115 -0.0331669 0.587131
0.0182533 -0.0271986 0.585401
0.051519 -0.0408337 0.586593
0.0149531 -0.0121633 0.584149
0.0582929 -0.0357912 0.583732
0.0727517 -0.0423437 0.583935
0.0304858 -0.0178898 0.5838
0.0292002 -0.0217352 0.583739
0.0385504 -0.0386601 0.587589
0.0101643 -0.0229791 0.586605
0.0258671 -0.00704181 0.585132
0.0455205 -0.0257908 0.585042
0.0654789 -0.03086 0.583682
0.0435219 0.0141708 0.58057
0.0722889 -0.0447292 0.584342
0.0543208 -0.0439315 0.587001
0.0556036 -0.0347087 0.585492
0.0179017 -0.0181305 0.581839
0.0414884 -0.00385592 0.583627
0.0664804 -0.0397917 0.580333
0.0655089 -0.032008 0.582609
0.0425998 -0.0367673 0.586466
0.0384864 -0.036787 0.586781
0.0740346 -0.0410945 0.583341
0.0564864 0.0112421 0.576585
0.00984631 -0.0208252 0.585725
0.0555027 -0.0248846 0.585066
0.0455486 -0.0258068 0.585403
0.0337338 -0.0136971 0.585176
0.0416233 -0.0179641 0.584992
0.0104364 -0.0197794 0.584861
0.0455107 -0.0265411 0.584915
0.0398169 0.0153778 0.582712
0.0244923 -0.00582864 0.584804
0.0335417 -0.0208702 0.583808
0.0491466 -0.0420902 0.587417
0.0478063 -0.039236 0.587116
0.0573597 -0.036761 0.583958
0.0325588 -0.0328807 0.586898
0.0474531 -0.0348367 0.586501
0.0257213 -0.00734582 0.585255
0.0534354 -0.0297512 0.585611
0.0492827 -0.00380189 0.58304
0.0624966 -0.0307833 0.583656
0.0324454 -0.0148711 0.583763
0.0516529 0.0173304 0.575864
0.0165729 -0.02373 0.582711
0.0544335 -0.0229859 0.585494
0.0282339 -0.0181989 0.584036
0.0434771 -0.0338622 0.586033
0.0545041 -0.0239815 0.585169
0.0194709 -0.0107569 0.583801
0.0155608 -0.0138274 0.584289
0.0653967 -0.0280793 0.584836
0.0344822 -0.0187567 0.583945
0.0454893 -0.0378362 0.58659
0.0486938 0.0132173 0.576073
0.0273153 -0.0168324 0.583763
0.0545536 0.00803341 0.579482
0.0573444 -0.0269766 0.585343
0.0192456 -0.00584188 0.58613
0.0334406 -0.00393397 0.584016
0.0515455 0.0227889 0.579677
0.0718003 -0.0368868 0.583562
0.0315804 -0.0197371 0.583889
0.0543288 0.0171805 0.57583
0.0634587 -0.0348072 0.579698
0.0345435 0.0051938 0.583525
0.0505083 0.000266965 0.583271
0.0455954 0.00917356 0.58086
0.03353 -0.0198669 0.58426
0.0165542 -0.0118044 0.58382
0.0347444 0.00996969 0.58352
0.0354862 -0.00295352 0.584147
0.0214099 -0.0067359 0.584834
0.0480823 -0.00671596 0.583102
0.0205918 -0.0138588 0.583802
0.0592292 -0.0388651 0.581567
0.0255315 -0.00189739 0.584373
0.0495525 0.0205726 0.579148
0.03945 0.00511578 0.583226
0.0565179 -0.031792 0.584791
0.015586 -0.0109886 0.583619
0.0444549 -0.0404381 0.586944
0.0475259 -0.0417347 0.5874
0.0194871 -0.01126 0.584286
0.0477917 -0.0413478 0.586937
0.0495702 -0.0407314 0.5868
0.0644341 -0.0469309 0.585429
0.0272307 -0.030032 0.585184
0.0682015 -0.0339572 0.579895
0.0485073 -0.00578552 0.583502
0.0275584 -0.0278709 0.584845
0.03461 -0.0227512 0.584645
0.0268144 -0.0147716 0.583807
0.0652219 -0.0380144 0.580055
0.0424155 -0.0147244 0.58393
0.0276177 -0.00974128 0.583774
0.0488406 -0.0226124 0.584964
0.0554664 0.0112367 0.57631
0.0734754 -0.0427785 0.58369
0.0425088 -0.0337756 0.586406
0.0255442 -0.00582726 0.584664
0.0588463 0.0120432 0.579278
0.0595055 -0.0279957 0.584775
0.0156091 -0.0116739 0.583836
0.039579 -0.0348063 0.586627
0.0453894 0.0151934 0.579509
0.0343107 -0.0139657 0.585342
0.0684879 -0.0387457 0.579781
0.0622432 -0.0348771 0.580239
0.0434287 -0.0267927 0.585789
0.0525863 -0.0367044 0.586269
0.0527134 0.0186765 0.576067
0.044165 -0.0398434 0.587123
0.027804 -0.0193176 0.581359
0.0295058 -0.0298873 0.585311
0.0565969 0.0191956 0.579752
0.0416019 -0.0306762 0.585933
0.0185067 -0.0207615 0.580769
0.0165075 -0.0297572 0.58573
0.0332671 -0.0235336 0.584064
0.0265607 -0.0228884 0.580461
0.0534155 -0.0318431 0.585808
0.0613145 -0.0295311 0.58425
0.0455714 0.0220163 0.585696
0.0513777 -0.0418739 0.586657
0.0690481 -0.0337783 0.581977
0.0297556 -0.0340847 0.587257
0.0354854 -0.0337451 0.586628
0.0155259 -0.0178704 0.584398
0.036396 -0.00476577 0.584209
0.0158306 -0.0217869 0.583103
0.0394692 -0.0158098 0.585
0.0215015 -0.0168129 0.579964
0.0254954 -0.0107933 0.583546
0.0614166 -0.0359647 0.580363
0.034825 0.0085069 0.583187
0.0161442 -0.0231607 0.583541
0.0275031 -0.00582615 0.584546
0.0415153 -0.00672635 0.584004
0.0235751 -0.0248135 0.580828
0.0549636 -0.041871 0.585767
0.0406016 -0.00563847 0.58389
0.0595387 -0.0378563 0.581655
0.0415077 -0.00491413 0.583898
0.0515002 -0.0227081 0.584834
0.0662077 -0.0322067 0.582573
0.0692953 -0.0302762 0.58406
0.0465305 -0.0267857 0.585489
0.0272396 -0.017865 0.580538
0.0385529 -0.0158061 0.584861
0.0726359 -0.0377256 0.583871
0.0444815 -0.0398211 0.586794
0.0445348 0.0042099 0.583025
0.051371 0.0186756 0.57604
0.0384729 -0.0378486 0.586995
0.0224868 -0.0107971 0.583752
0.0304504 -0.0328044 0.586753
0.0326182 -0.0209204 0.584157
0.0580994 0.0151488 0.577806
0.050478 -0.0388864 0.586421
0.0695238 -0.0458392 0.584628
0.0466968 -0.0117962 0.588432
0.0275647 -0.0298466 0.584937
0.0435835 0.0202608 0.587468
0.0114929 -0.0179196 0.584772
0.0195813 -0.0265865 0.582597
0.0426055 -0.0348014 0.586546
0.0206188 -0.0127309 0.584023
0.0423887 -0.0187201 0.585227
0.0171718 -0.018756 0.582587
0.0574702 0.00711742 0.580501
0.0344185 -0.0178949 0.583963
0.0394921 -0.0207812 0.585339
0.0525901 0.00622558 0.581287
0.038033 -0.0269009 0.586167
0.0691203 -0.0408632 0.580059
0.0736446 -0.0405934 0.582641
0.0465948 0.0041368 0.583347
0.0307928 -0.0209112 0.583899
0.059495 -0.0449851 0.584919
0.0535695 0.0163973 0.5762
0.0565528 0.0141646 0.576249
0.0196265 -0.00914045 0.583942
0.0265392 -0.0337064 0.586615
0.0514124 0.0196417 0.578181
0.0457254 0.0210515 0.579969
0.0514119 0.000367432 0.58326
0.0464227 -0.0197402 0.58498
0.0503953 0.00777736 0.579372
0.0294703 -0.00386243 0.584608
0.0237457 -0.028512 0.58503
0.023534 -0.0127612 0.58387
0.0215354 -0.026921 0.582502
0.0543195 0.0228035 0.579542
0.0485275 -0.0288711 0.585565
0.0334662 0.00416456 0.583386
0.015853 -0.0181956 0.583929
0.0503967 0.00352547 0.581981
0.012726 -0.01495 0.584488
0.0696307 -0.0328299 0.583835
0.0415263 -0.026701 0.58571
0.0562841 0.00949505 0.579103
0.0164355 -0.0306928 0.586248
0.0726214 -0.0389099 0.58388
0.0225133 -0.0039747 0.584438
0.0422377 -0.0149681 0.584601
0.0385647 -0.0267096 0.585959
0.0335481 -0.00884821 0.584576
0.0645038 -0.0298319 0.583422
0.0703643 -0.0337542 0.584162
0.0459591 -0.00972733 0.582934
0.0483621 0.0172767 0.576557
0.0645676 -0.0329215 0.581723
0.0711518 -0.0312018 0.584431
0.0454237 0.0129564 0.579945
0.0405191 0.0101566 0.582704
0.0564187 -0.0318455 0.585157
0.0692977 -0.0378798 0.580289
0.0364625 -0.0177535 0.585277
0.0395085 0.00817127 0.582903
0.0394124 -0.00385946 0.584158
0.0564601 0.0151096 0.576316
0.0213361 -0.00401826 0.585296
0.0309006 -0.014251 0.583086
0.0644093 -0.0320603 0.582649
0.0302563 -0.0291251 0.585197
0.05345 -0.0229895 0.584943
0.0364996 -0.0258274 0.585872
0.0634691 -0.0378563 0.579929
0.045329 0.0122218 0.580653
0.0554113 -0.0350817 0.5849
0.0415249 -0.00672792 0.58414
0.0685447 -0.0357784 0.580262
0.0465617 0.00219357 0.583352
0.0116492 -0.0227662 0.585032
0.04752 -0.0258091 0.585458
0.0442353 0.0146088 0.580086
0.0545228 0.0220819 0.579473
0.0474529 -0.0225233 0.585005
0.0353594 -0.0207312 0.584902
0.0200582 -0.0269213 0.583327
0.0305168 -0.0049183 0.584392
0.0175199 -0.0288667 0.585532
0.0400831 -0.0139986 0.585133
0.0375209 0.000517911 0.582919
0.0612261 -0.0385654 0.580074
0.0454118 -0.0317025 0.586241
0.0276832 -0.00825207 0.58516
0.0464799 0.00503439 0.582537
0.073292 -0.0340871 0.583831
0.0313498 -0.0298388 0.585845
0.0375402 0.00699997 0.583219
0.05613 -0.0410812 0.5853
0.0104433 -0.019598 0.585244
0.0581921 0.0210606 0.580219
0.0597725 -0.0399487 0.580713
0.0334552 -0.021 0.584272
0.0684973 -0.0398002 0.579861
0.0284692 0.000398047 0.58391
0.0174166 -0.0297586 0.585755
0.029637 -0.0218928 0.584319
0.048748 0.0178031 0.576713
0.0555307 -0.0288307 0.585362
0.0445917 0.0141274 0.580467
0.0468152 -0.0364417 0.586106
0.0475097 0.01902 0.57875
0.0423067 0.0174218 0.581398
0.029199 -0.0282191 0.585226
0.0625784 -0.0355294 0.57987
0.0237609 -0.00129553 0.585403
0.0525156 0.00696684 0.580464
0.0615291 -0.0308313 0.583708
0.0117604 -0.0147023 0.583051
0.0596589 -0.0309568 0.583881
0.0599568 -0.0415541 0.581335
0.0464817 -0.0297568 0.585721
0.0487143 0.0226962 0.579862
0.0597331 -0.0358304 0.583553
0.0278057 -0.0220237 0.581396
0.0149834 -0.021265 0.585331
0.0563655 -0.0269031 0.58539
0.0564461 -0.0279269 0.585442
0.055634 0.0203076 0.580128
0.0485379 -0.0218563 0.58496
0.0415536 -0.0138334 0.584544
0.0544791 0.015135 0.57602
0.0555967 -0.0366991 0.584692
0.0374648 0.00413713 0.583386
0.05169 -0.0228764 0.585272
0.014522 -0.0221612 0.585027
0.0456864 -0.0319857 0.585878
0.0433506 -0.0319116 0.586372
0.0185193 -0.0228667 0.580998
0.0315965 -0.0209151 0.58401
0.0464828 -0.0113248 0.587649
0.0394397 -0.008848 0.584562
0.0424 -0.00978681 0.584235
0.0482449 0.0183382 0.578546
0.0184708 -0.0279336 0.585583
0.0345388 0.00925456 0.582809
0.0685394 -0.033957 0.580535
0.0505297 0.0101997 0.576633
0.0114731 -0.0227768 0.585305
0.0134001 -0.0196166 0.584898
0.0659331 -0.0331231 0.581038
0.071289 -0.0318779 0.583904
0.0334412 -0.0178888 0.583765
0.0285062 -0.0231262 0.583432
0.0274504 -0.0188082 0.580814
0.029419 -0.0297699 0.584788
0.0235575 -0.0177854 0.580393
0.0385243 -0.0358738 0.586728
0.0524872 -0.0374202 0.586009
0.0568162 0.0181551 0.578426
0.0555001 0.0130822 0.576247
0.0594975 0.0083758 0.580372
0.0378906 -0.00551852 0.583973
0.0345406 0.00413772 0.583475
0.0367583 -0.00588314 0.584208
0.0410692 -0.0291779 0.586256
0.0318259 -0.0296321 0.586249
0.0463669 -0.00748455 0.584276
0.0467667 0.0217973 0.57987
0.0536018 -0.0237458 0.58495
0.0225287 -0.0238082 0.58094
0.0339155 0.00895772 0.583098
0.0582733 -0.0377428 0.583737
0.051433 -0.0388543 0.586509
0.0145285 -0.021808 0.585287
0.0516555 -0.038961 0.586024
0.0207305 -0.00674107 0.585282
0.0431911 -0.00597378 0.584213
0.032353 -0.022616 0.584276
0.0315758 -0.0238001 0.584426
0.0464857 -0.00789565 0.58366
0.0344745 -0.0369833 0.58749
0.0534182 -0.0279259 0.585423
0.0504969 0.0121294 0.57626
0.0424303 0.0190737 0.588322
0.0694777 -0.0397585 0.579982
0.0356669 -0.0352908 0.587121
0.0593319 -0.0252077 0.585547
0.0274318 0.00294523 0.58625
0.0494919 -0.00386555 0.58332
0.0239371 -0.0262732 0.582329
0.0264562 -0.0308403 0.58539
0.0157282 -0.0188548 0.583777
0.0586941 -0.0319936 0.58372
0.0439361 0.0150588 0.580095
0.0294575 -0.035592 0.587799
0.040505 -0.0338457 0.586464
0.0395696 -0.0188837 0.585207
0.0559432 0.0224105 0.580225
0.0204499 -0.00782537 0.584578
0.0464768 0.0201785 0.579868
0.0502372 -0.0409075 0.58715
0.0395144 0.00714788 0.582989
0.043506 0.0171012 0.580356
0.0436445 -0.0188412 0.585232
0.0215848 -0.0138167 0.583841
0.0586365 0.0107121 0.580165
0.03423 0.0092627 0.583323
0.0444394 -0.0327378 0.586241
0.0175665 -0.0126137 0.58403
0.0444878 -0.0319148 0.585924
0.034779 -0.020991 0.58444
0.0305167 -0.0227414 0.584394
0.0182754 -0.0108049 0.584172
0.0547486 -0.0342613 0.585088
0.0384885 -0.0218785 0.585554
0.0465648 -0.0398194 0.586769
0.0233992 -0.0021978 0.583929
0.0334935 0.00112182 0.583625
0.0605311 -0.0268506 0.585324
0.0426277 -0.03062 0.586016
0.0394481 -0.0108144 0.584687
0.0394907 -0.00702866 0.58404
0.0414848 0.0152446 0.581464
0.0305336 0.000189472 0.583928
0.0494803 -0.0258056 0.585378
0.026899 -0.0248163 0.583459
0.0244768 -0.00386128 0.584435
0.0515176 0.0112127 0.576469
0.063468 -0.0417923 0.580468
0.0395381 -0.0019332 0.583784
0.032655 -0.00364883 0.584276
0.0561159 -0.0450949 0.588324
0.0395562 -0.00551925 0.584051
0.0632577 -0.0334381 0.581293
0.0684889 -0.031762 0.583621
0.0165921 -0.0240591 0.583385
0.0516252 -0.0237406 0.584823
0.0405956 -0.00385714 0.583804
0.0211854 -0.0282233 0.585314
0.0375362 -0.0208174 0.585508
0.0724882 -0.0410071 0.584244
0.0458279 -0.0215593 0.585106
0.0285714 -0.0353361 0.587875
0.0393775 -0.00590973 0.584279
0.0447585 0.00127138 0.582995
0.0355199 -0.0118725 0.584701
0.0215766 -0.0107947 0.583619
0.0534114 -0.043477 0.587011
0.0519715 0.0115303 0.576096
0.0525149 -0.0428754 0.586704
0.0285132 -0.0189386 0.583574
0.0412052 -0.0399163 0.588197
0.0426002 -0.0358581 0.586472
0.0468737 0.000518041 0.583065
0.040747 -0.0300729 0.585981
0.0614285 -0.0427347 0.581044
0.052538 0.0196156 0.577413
0.0675269 -0.0308222 0.583485
0.0568108 0.0108284 0.578371
0.0735409 -0.0416086 0.58421
0.0495379 0.0171464 0.575933
0.0427409 -0.015694 0.586323
0.0345588 -0.0278241 0.585828
0.0581242 0.00701179 0.58004
0.0569135 -0.0393313 0.584026
0.0450623 -8.47513e-05 0.583026
0.0255984 -0.00869117 0.584177
0.0237091 -0.0127667 0.584128
0.0281611 -0.0184532 0.582531
0.0294357 -0.0168538 0.583921
0.0484715 0.0204031 0.579647
0.0135098 -0.0227424 0.585392
0.0354586 0.000216853 0.583692
0.0583729 0.00741777 0.580526
0.0486254 0.0200368 0.578805
0.0505969 -0.0408206 0.586628
0.038623 -0.0208588 0.585507
0.0355708 -0.0249047 0.585538
0.0324216 0.00519213 0.583337
0.0535301 -0.0286614 0.584992
0.0495703 -0.0417495 0.586768
0.047433 -0.0388684 0.586721
0.0325279 -0.010976 0.585247
0.0384908 -0.0308407 0.586372
0.0474598 -0.0317883 0.58596
0.0404257 -0.00890594 0.584401
0.0217661 -0.0028246 0.588745
0.0394923 -0.0167744 0.584894
0.0495433 -0.0308067 0.585797
0.0454802 -0.00491292 0.583749
0.0112944 -0.0188818 0.584927
0.0533722 -0.0288756 0.585392
0.0274988 -0.00491882 0.584455
0.042717 -0.0180367 0.585304
0.0486468 -0.0207743 0.58536
0.024523 -0.0267138 0.583734
0.0214413 -0.00914201 0.584042
0.066242 -0.0433405 0.581112
0.0289876 -0.0343774 0.587071
0.0504882 0.000116171 0.583039
0.0119944 -0.0131358 0.587129
0.0485172 -0.0297914 0.585806
0.0496272 -0.032883 0.586398
0.0135104 -0.0277544 0.585866
0.0417524 0.0140313 0.581004
0.038532 -0.00884771 0.584545
0.0367513 -0.0209526 0.585058
0.0444862 -0.0308491 0.58593
0.0245596 -0.0160387 0.580778
0.0505503 0.00700745 0.580724
0.0606564 -0.0279146 0.585185
0.0198539 -0.0163237 0.58176
0.0204882 -0.014904 0.582694
0.0694341 -0.0387721 0.580175
0.0443656 0.0161718 0.580221
0.0409231 -0.00250068 0.584171
0.0605873 -0.0331619 0.582776
0.0504761 0.00507508 0.581453
0.0573037 0.0160983 0.576668
0.0562981 0.0179018 0.576692
0.045987 0.0114484 0.579488
0.0405603 -0.0188954 0.585034
0.0344693 -0.0289106 0.586368
0.0584571 -0.0408949 0.584799
0.0684863 -0.0410585 0.580276
0.0365524 -0.00703174 0.584295
0.0636758 -0.0476859 0.586528
0.0386037 -0.0377217 0.587167
0.0724551 -0.0428898 0.584325
0.0634247 -0.0468204 0.585355
0.0405352 -0.0138265 0.584674
0.0195199 -0.00974471 0.583977
0.0445785 0.0131222 0.58065
0.0244419 -0.0180739 0.580022
0.0414567 -0.032044 0.586021
0.0176123 -0.015806 0.583465
0.0709343 -0.0357746 0.582644
0.0674076 -0.0369578 0.579941
0.0365186 -0.0189839 0.584964
0.0605089 -0.0317696 0.583762
0.0372386 0.00594477 0.583217
0.0422844 0.0092143 0.582644
0.0544066 0.00740889 0.579831
0.0405019 -0.0127777 0.584629
0.0638067 -0.0443237 0.582189
0.0275076 -0.0207573 0.580653
0.056518 0.0172849 0.576472
0.0455709 0.00838573 0.581058
0.0205106 -0.00582836 0.584767
0.0603406 -0.0258964 0.585476
0.0404247 -0.0249115 0.585699
0.0732383 -0.0428163 0.584205
0.0266244 -0.016627 0.581851
0.0696313 -0.0337663 0.583503
0.027495 -0.0138444 0.583732
0.0595616 -0.0268623 0.585327
0.0166303 -0.00915275 0.584728
0.0473558 0.00901554 0.580355
0.0485953 0.0180736 0.577735
0.0274148 -0.025683 0.583737
0.0742538 -0.0381142 0.583879
0.0406742 -0.0197387 0.584934
0.0275067 -0.00776384 0.584835
0.0617475 -0.027861 0.584061
0.0581189 0.00652269 0.580987
0.0134735 -0.0258092 0.585459
0.065485 -0.0357456 0.579729
0.0315367 -0.0319189 0.586506
0.0205632 -0.0198913 0.58056
0.0534258 0.00412875 0.582208
0.0155631 -0.0103555 0.584376
0.0562222 0.0143052 0.575914
0.0682675 -0.0309757 0.583018
0.0604933 -0.0346274 0.583612
0.0473318 0.0113191 0.576712
0.0485222 0.00516185 0.581478
0.0244786 -0.0297436 0.585463
0.0444757 -0.0337615 0.58633
0.060483 -0.0409432 0.581194
0.0572072 -0.0242972 0.585488
0.0652314 -0.0372702 0.580139
0.0344267 0.00710082 0.583249
0.0119692 -0.0264341 0.585894
0.0366608 0.0129945 0.58846
0.0375324 -0.0159301 0.584977
0.0524016 0.0142736 0.57624
0.0222781 -0.0154343 0.582242
0.0218184 -0.0151275 0.58202
0.0535451 -0.0226938 0.585393
0.0255165 -0.0228937 0.580596
0.0118299 -0.0267646 0.5865
0.0122603 -0.0186933 0.585334
0.0233906 -0.00591489 0.584793
0.0354937 -0.00672944 0.58427
0.0346594 -0.0137271 0.584845
0.0158676 -0.010055 0.584464
0.0562717 0.0168853 0.575913
0.0103781 -0.0208626 0.585361
0.0694929 -0.035784 0.580353
0.00985816 -0.0217596 0.586429
0.0285793 -0.0279401 0.584927
0.0236003 -0.00552986 0.585173
0.0484917 0.0220863 0.579589
0.0127057 -0.0224605 0.584945
0.0535476 0.00492401 0.581353
0.0358331 0.0117061 0.584879
0.0463667 -0.0205946 0.584908
0.0695187 -0.0378197 0.579942
0.0364933 -0.0249146 0.585771
0.0414856 -0.0196404 0.585006
0.0699181 -0.0336064 0.584219
0.0417258 -0.0395293 0.586965
0.048429 0.0142196 0.576465
0.0493013 -0.0237497 0.585048
0.0685457 -0.0398283 0.58027
0.04355 -0.0219577 0.584978
0.062288 -0.0473649 0.586307
0.0163471 -0.0252018 0.585411
0.0265631 -0.0340782 0.587145
0.0234729 -0.0318788 0.585769
0.0474626 -0.0378382 0.586619
0.049433 -0.0011396 0.583035
0.0448515 -0.0306891 0.58618
0.035408 0.0112616 0.58535
0.060577 -0.0417657 0.580696
0.042491 -0.0321192 0.586011
0.0192702 -0.0262718 0.582298
0.0434918 -0.0218128 0.585416
0.0394009 -0.0393281 0.588495
0.06892 -0.0432125 0.583439
0.0481366 0.0224066 0.580124
0.0513699 -0.0430994 0.587378
0.0144566 -0.0107332 0.58852
0.064365 -0.0287761 0.584252
0.0354244 -0.019633 0.584786
0.0405456 -0.039562 0.587452
0.0200901 -0.0135245 0.584254
0.0418905 -0.0215564 0.585028
0.0463255 0.00717637 0.581229
0.0188 -0.0172246 0.581716
0.0384279 -0.0188422 0.58526
0.0444325 0.00624033 0.582673
0.0148752 -0.0228674 0.585042
0.0376109 -0.00672994 0.584317
0.0386048 -0.0188336 0.584993
0.0224382 -0.0149892 0.58249
0.0537918 -0.0322051 0.586197
0.0424884 -0.0396849 0.587023
0.0325015 0.00628938 0.583224
0.0581619 -0.0381505 0.584437
0.0176047 -0.0199345 0.580728
0.0587164 -0.0389438 0.582744
0.0291359 -0.0210644 0.583963
0.0145635 -0.0297561 0.586703
0.0111842 -0.0151906 0.584446
0.0305208 -0.0238019 0.58447
0.0437851 -0.0352295 0.586101
0.0503952 -0.0308609 0.58578
0.0196027 -0.0256954 0.58174
0.0475373 -0.0327534 0.585938
0.020435 -0.0156448 0.582611
0.0174466 -0.0278808 0.585745
0.0205259 -0.0118536 0.583766
0.0357968 -0.0208999 0.585275
0.044112 0.00683981 0.582417
0.0625394 -0.033681 0.581598
0.0337912 -0.0285677 0.586172
0.0534808 -0.0239105 0.585281
0.0654187 -0.0290028 0.583952
0.0225274 -0.00492183 0.584806
0.0233536 -0.028117 0.584675
0.0544401 0.0159637 0.575863
0.0536024 -0.0438127 0.587442
0.023618 -0.00199802 0.584365
0.0214777 -0.0248593 0.580941
0.0505035 -0.0248648 0.585311
0.0564499 -0.0297446 0.58548
0.0603765 -0.0448711 0.585405
0.0495536 -0.0288143 0.585797
0.0581356 -0.0326978 0.584172
0.0555172 0.0149475 0.575806
0.0685509 -0.0349675 0.580315
0.032473 0.00221944 0.583767
0.0584619 -0.0287585 0.584919
0.0615675 -0.0366143 0.579928
0.0321363 0.00813723 0.589162
0.0388624 0.0138535 0.58195
0.0357628 -0.0158845 0.584967
0.0208081 -0.00497067 0.584631
0.0567336 0.0111123 0.577585
0.0534473 0.0181769 0.576412
0.0235911 -0.0253219 0.581221
0.0463988 -0.0318356 0.585767
0.0359039 -0.0297728 0.586036
0.0306985 -0.0294167 0.584978
0.0525183 0.023321 0.580492
0.0534923 0.0132293 0.57598
0.0428159 -0.0152122 0.585278
0.0572272 -0.0248027 0.584919
0.0604497 -0.0308854 0.584162
0.0391663 -0.0186823 0.584992
0.0345727 -0.0108282 0.584803
0.0116194 -0.0148654 0.583537
0.0561617 0.0103704 0.577845
0.0557665 0.00978237 0.578392
0.06018 -0.0419708 0.581557
0.0446105 -0.0216564 0.585006
0.0307073 -0.0103692 0.585145
0.0275465 -0.0127238 0.583545
0.0557519 0.00899883 0.579276
0.0415412 -0.0367695 0.586502
0.0645177 -0.0437715 0.581515
0.0455077 -0.0219092 0.585364
0.0594573 -0.0278441 0.585293
0.0294156 -0.0138093 0.583522
0.0205066 -0.0145557 0.583215
0.0665329 -0.0308592 0.583664
0.0394776 -0.0249487 0.585685
0.0305764 -0.0278937 0.584747
0.0464551 -0.0258061 0.585387
0.0214947 -0.0297454 0.585497
0.0383057 0.0139383 0.583399
0.0164676 -0.0258559 0.585659
0.0285822 -0.0288122 0.584985
0.0305764 -0.0107283 0.58457
0.0248228 -0.0146829 0.584282
0.0617439 -0.0269977 0.58498
0.0375029 -0.0228171 0.585633
0.0494524 -0.0266983 0.585047
0.0285692 -0.0268346 0.58472
0.0387099 0.0140715 0.582675
0.0661183 -0.0402614 0.580027
0.0345923 -0.00500426 0.584348
0.0475209 0.0151091 0.576294
0.0445422 -0.0219101 0.585244
0.0411068 0.0131639 0.582493
0.0453438 0.00319398 0.583256
0.0291973 -0.00900879 0.585193
0.018672 -0.011858 0.583985
0.0435732 0.00398548 0.583265
0.0255783 -0.0148025 0.584458
0.0195347 -0.0126677 0.584204
0.0193785 -0.0129662 0.584046
0.0288428 -0.01941 0.584139
0.0655619 -0.0340614 0.579968
0.0458902 0.00330567 0.583015
0.0324783 -0.0267993 0.584851
0.0335082 -0.0198541 0.58388
0.028804 -0.0199869 0.583353
0.0623207 -0.044036 0.582364
0.0415179 -0.0219423 0.585461
0.0575055 0.00931786 0.579722
0.0575405 0.00901318 0.580201
0.055498 0.00624658 0.580702
0.0384806 -0.000839293 0.583764
0.0255061 -0.0188344 0.580359
0.0523088 -0.00088865 0.583177
0.0622747 -0.042756 0.581332
0.0446556 0.00932599 0.581003
0.0453595 -0.0230641 0.584916
0.0535786 -0.0428143 0.586765
0.0206026 -0.0267812 0.582735
0.0484969 0.012106 0.576566
0.0611409 -0.0287654 0.584034
0.0547351 -0.0357647 0.584944
0.0544053 -0.035861 0.585811
0.0322744 -0.0299295 0.586139
0.0553435 -0.0369968 0.585302
0.0741819 -0.0349823 0.584502
0.0484165 -0.00491082 0.583497
0.0592539 -0.0307813 0.58448
0.0576693 0.0163344 0.577486
0.0595266 0.00846144 0.580071
0.0484545 0.0131085 0.576447
0.0674864 -0.0357317 0.580046
0.0489853 -0.00520874 0.583087
0.0255127 -0.0296763 0.585328
0.019772 -0.016998 0.580827
0.0487401 -0.0410766 0.587397
0.0545417 -0.0349288 0.585574
0.034559 -0.0077556 0.584571
0.0525582 -0.0355237 0.585956
0.0525978 -0.0360052 0.586398
0.0485004 -0.000747835 0.583055
0.0204841 -0.031843 0.585805
0.0464268 -0.0224637 0.58503
0.0503288 -0.0211461 0.585391
0.0445899 0.0152518 0.58031
0.0324772 -0.0237964 0.584338
0.0291463 -0.0180522 0.58417
0.0295141 -0.027855 0.584726
0.0183452 -0.0136694 0.583991
0.0373613 -0.0121839 0.585138
0.0277292 -0.0167423 0.58471
0.0365176 -0.0169644 0.58519
0.0510154 -0.0212759 0.585631
0.0165077 -0.0288493 0.585737
0.0534652 -0.0349451 0.586413
0.0134184 -0.0188319 0.584941
0.0295432 -0.0208839 0.584342
0.0445641 -0.0288819 0.585842
0.0475098 -0.0356246 0.585955
0.047538 0.0160831 0.576502
0.0477972 0.0161444 0.576033
0.0355273 -0.01384 0.584823
0.0373733 -0.0124904 0.585327
0.0504731 0.0172845 0.575988
0.015568 -0.0168555 0.58456
0.0164397 -0.0178753 0.583326
0.0604376 0.0143112 0.580181
0.0162458 -0.0166267 0.584486
0.044747 0.0160284 0.579917
0.0724242 -0.043862 0.584459
0.0612946 -0.0276271 0.585503
0.0445302 0.0184299 0.580021
0.053506 0.0072588 0.579815
0.0444622 0.0081799 0.581372
0.0133726 -0.013703 0.583991
0.0185258 -0.0148326 0.583737
0.0385347 -0.00975491 0.584586
0.0618465 -0.0470718 0.586432
0.0365446 -0.0337431 0.586595
0.0503589 0.00740869 0.579815
0.0703875 -0.0431877 0.583104
0.0506488 -0.0250285 0.584894
0.0498503 -0.0169504 0.582628
0.0515038 0.0194205 0.57753
0.0145388 -0.027788 0.585705
0.0414671 0.00220681 0.583326
0.0384801 0.000216925 0.583756
0.0475649 -0.0298445 0.585745
0.054469 -0.0268879 0.585334
0.0119527 -0.0233732 0.585086
0.0449173 -0.0242796 0.585063
0.0362601 0.00323024 0.582995
0.038516 -0.00582369 0.584302
0.0204418 -0.0324795 0.58568
0.0546202 -0.0237718 0.584972
0.0170089 -0.0193444 0.582167
0.013472 -0.0248986 0.585397
0.0255152 -0.0177906 0.580564
0.051358 0.0205763 0.579253
0.048469 -0.0347565 0.586378
0.0115457 -0.0218987 0.585359
0.0464422 -0.0218662 0.585224
0.0432125 -0.018831 0.584913
0.0414776 -0.0249075 0.585604
0.0635544 -0.0278854 0.584575
0.0346508 -0.025123 0.585337
0.0515304 0.0202939 0.578667
0.0364714 -0.00779854 0.584301
0.0364915 0.00413663 0.583322
0.0256023 -0.030839 0.585364
0.0716001 -0.0316527 0.584391
0.071527 -0.0380283 0.582565
0.0675787 -0.0472315 0.585405
0.0685277 -0.0469762 0.58524
0.0167529 -0.0245261 0.583733
0.0273036 -0.0158808 0.584434
0.0153909 -0.0199363 0.584393
0.0393406 0.0154974 0.585336
0.0394378 0.0153251 0.584535
0.0535865 0.00621919 0.580688
0.0617026 -0.034954 0.579856
0.0613015 -0.034896 0.580552
0.0255376 -0.00280426 0.584512
0.0597345 0.00913354 0.579907
0.051423 0.0160678 0.576252
0.0391766 -0.0173261 0.585146
0.0415332 0.00398503 0.583196
0.0328344 -0.0273159 0.58532
0.0528547 0.0205762 0.579248
0.0362243 0.0054409 0.583066
0.0262639 0.000216904 0.583867
0.0142231 -0.0189149 0.585172
0.011171 -0.0248399 0.586392
0.0304826 -0.0157757 0.583739
0.0348905 -0.0179047 0.584284
0.016734 -0.0217745 0.581765
0.0516094 0.0151068 0.576209
0.0514769 0.0151007 0.575975
0.0545091 -0.0308187 0.585763
0.034611 -0.00884955 0.584665
0.0675342 -0.0337567 0.580457
0.0406016 0.0122094 0.582446
0.0224896 -0.00586648 0.584806
0.0564977 0.00845691 0.57976
0.0256499 -0.000991124 0.584317
0.0184232 -0.028754 0.58503
0.0625393 -0.0348541 0.579856
0.0201559 -0.0322037 0.586171
0.0691681 -0.0470002 0.585539
0.0451443 0.0150617 0.580207
0.0333538 -0.0148725 0.583818
0.0189096 -0.0297257 0.585109
0.0495035 0.0230144 0.580329
0.0325468 -0.0357359 0.586954
0.0588341 0.0130885 0.579157
0.033825 -0.018957 0.584138
0.0485203 -0.0378354 0.586575
0.0184302 -0.0297509 0.585604
0.0414333 -0.0227641 0.584979
0.0434341 0.0198887 0.585454
0.0434395 -0.0348454 0.586434
0.0552263 -0.037907 0.585342
0.0417885 0.0177142 0.583604
0.0452812 0.0143583 0.579656
0.0693969 -0.0465723 0.584916
0.0339895 -0.0150376 0.584372
0.0445078 -0.0228651 0.584982
0.0694588 -0.039836 0.580381
0.025447 -0.0208452 0.580381
0.0514828 -0.0366966 0.586029
0.0406671 -0.0290783 0.586285
0.0384678 0.0111977 0.58274
0.0684992 -0.0357547 0.579877
0.0432196 0.0110318 0.581213
0.0441686 0.00982954 0.581181
0.044629 0.0101612 0.580819
0.059795 -0.0366973 0.581515
0.0215081 -0.0157222 0.581763
0.0385149 -0.0348037 0.586584
0.0454964 0.0101246 0.580873
0.0594719 0.0161045 0.579955
0.0565537 -0.0267712 0.584988
0.0374926 0.0112064 0.58248
0.0625187 -0.0379617 0.580012
0.0611542 -0.0261185 0.585608
0.0153583 -0.0228485 0.585203
0.015671 -0.0227512 0.584649
0.0158509 -0.0225693 0.58385
0.042366 -0.00677592 0.583941
0.0464289 -0.0257914 0.585056
0.0434362 -0.0237824 0.585482
0.0288163 -0.0205988 0.583602
0.0435295 -0.0307969 0.585923
0.0295632 -0.00880747 0.584737
0.0655452 -0.0428922 0.580671
0.0254976 -0.0198884 0.580478
0.0225056 -0.017784 0.580346
0.0555561 -0.0307979 0.585629
0.055603 -0.0309891 0.586123
0.0563895 -0.0427126 0.584853
0.0504283 0.0208628 0.578892
0.0444666 -0.0238135 0.585501
0.0695682 -0.0449114 0.584451
0.048577 -0.025808 0.585431
0.0287774 -0.0247784 0.584345
0.0435637 0.0121634 0.580727
0.0406892 0.00624378 0.582982
0.0234933 -0.0331189 0.586281
0.0348489 -0.0238346 0.585276
0.0646084 -0.0467386 0.584972
0.0284574 -0.0198048 0.582433
0.0283466 -0.0248941 0.58387
0.0514967 -0.0340284 0.586285
0.0415261 -0.00612418 0.584157
0.0585393 -0.0251923 0.585189
0.0346568 -0.0198421 0.584417
0.043441 -0.0249051 0.585548
0.0591835 -0.0417861 0.584581
0.0504888 0.0212249 0.579587
0.0576222 -0.0338392 0.584326
0.0723483 -0.0420706 0.584335
0.0395097 -0.0238477 0.585599
0.0504666 0.0180389 0.575914
0.0584133 -0.0249799 0.584937
0.0235602 -0.0207879 0.580459
0.0184907 -0.0247305 0.581445
0.0434111 -0.0298295 0.58596
0.0394757 -0.00483936 0.583977
0.0138178 -0.0292264 0.587232
0.0495088 -0.0297564 0.585714
0.0175498 -0.0188951 0.58157
0.0655826 -0.0458678 0.584607
0.0342735 -0.0200113 0.584064
0.0584859 -0.0448801 0.58552
0.0473332 -0.0328151 0.586268
0.0157442 -0.00992139 0.585495
0.0506839 -0.0217681 0.585299
0.0143439 -0.0290638 0.586399
0.0146925 -0.0287224 0.585796
0.048538 -0.0268364 0.585522
0.0444453 -0.0298346 0.585928
0.0338262 -0.0179008 0.584159
0.0487102 0.0151083 0.576268
0.0224046 -0.0268511 0.582735
0.0256941 -0.0259236 0.583492
0.0253852 -0.0256896 0.582747
0.0167336 -0.0172643 0.583058
0.0345871 -0.00582325 0.58426
0.0386593 -0.00431261 0.584185
0.0463844 0.0100468 0.580713
0.0184918 -0.0238305 0.581484
0.0145417 -0.0238261 0.585352
0.0226176 -0.0270678 0.583233
0.0386573 0.0147689 0.586444
0.0425056 0.0112268 0.58141
0.0695219 -0.0308467 0.583429
0.0694702 -0.0308237 0.582995
0.0554197 -0.032708 0.585255
0.0235653 -0.0218429 0.580585
0.0564978 0.00911357 0.579321
0.0266337 -0.0244556 0.582054
0.0254219 -0.02535 0.581866
0.0584647 -0.0427651 0.584744
0.0440906 -0.0285659 0.586135
0.0405044 0.00831961 0.582974
0.049467 -0.0278728 0.585578
0.0253699 -0.0246979 0.580675
0.0394206 -0.00667918 0.58428
0.0224795 -0.0188673 0.580448
0.0575971 -0.0318659 0.584837
0.0395073 -0.0258139 0.585563
0.0181838 -0.0211166 0.581245
0.0655207 -0.0417857 0.580377
0.0576585 -0.0427744 0.584779
0.0572772 -0.0429817 0.585429
0.0315398 0.00112215 0.583758
0.0555933 -0.0279846 0.585383
0.0238431 -0.0183744 0.580043
0.015483 -0.0120889 0.584203
0.0420618 0.00549251 0.583211
0.0334864 -0.0349315 0.587203
0.0385415 -0.00487218 0.584035
0.0263571 -0.0249298 0.582589
0.0342766 -0.00250045 0.584116
0.0682271 -0.0345697 0.580112
0.0545373 -0.0258679 0.585417
0.0554232 -0.0278314 0.585025
0.0582401 -0.0315465 0.585223
0.0625513 -0.0387814 0.580315
0.0443018 -0.0278647 0.586257
0.0484571 0.0089631 0.578581
0.0632277 -0.0460643 0.585186
0.0493145 -0.0226217 0.585205
0.064412 -0.0308548 0.583583
0.0643546 -0.0308273 0.583063
0.028589 -0.020927 0.582658
0.0155953 -0.0258149 0.585587
0.0525543 -0.0238634 0.585239
0.0465036 -0.021014 0.585362
0.0226528 -0.0156166 0.58156
0.0180722 -0.00706891 0.587384
0.0591599 -0.0427484 0.585343
0.0445518 -0.00890346 0.584236
0.064666 -0.0475327 0.585885
0.0364802 -0.0238463 0.585562
0.0281153 -0.0208283 0.581583
0.0584157 -0.0317523 0.584557
0.0255184 -0.0237959 0.580638
0.0465268 -0.033942 0.58629
0.041556 -0.01187 0.584577
0.0485202 -0.0326971 0.585963
0.0464921 -0.00488125 0.583572
0.049466 -0.033631 0.586403
0.0464512 -0.0238372 0.585338
0.0555112 -0.0398277 0.584867
0.0444598 -0.0189098 0.585014
0.0468306 0.0121442 0.576964
0.0591416 -0.0421302 0.585162
0.0466572 -0.00521804 0.584128
0.0624231 -0.0272885 0.584733
0.0434866 -0.00972283 0.58431
0.037002 -0.002803 0.584242
0.0304928 -0.000839515 0.583933
0.011996 -0.027404 0.587207
0.0462891 0.0132037 0.577651
0.0148483 -0.0294665 0.58597
0.0666025 -0.0476107 0.585603
0.0404684 -0.0349059 0.586772
0.048649 -0.0316046 0.586299
0.0131457 -0.0124694 0.584343
0.0315628 -0.0018968 0.584184
0.0655361 -0.0298006 0.583615
0.0357995 0.0109595 0.582693
0.0349528 -0.016575 0.585327
0.0538409 0.00352446 0.581816
0.0234141 -0.0266559 0.582796
0.0411879 0.0171119 0.583643
0.0555621 -0.0387776 0.584782
0.0592979 -0.0325851 0.584318
0.0423309 -0.0158245 0.585543
0.0436976 -0.0289351 0.585943
0.0363816 -0.00280174 0.583978
0.0662111 -0.0476558 0.586158
0.0315493 -0.00189599 0.583933
0.0473461 -0.0208562 0.585179
0.0405399 0.00520283 0.583001
0.0541074 -0.0367589 0.586333
0.0596107 -0.0329504 0.583831
0.0608255 -0.028759 0.583905
0.0500525 0.0199346 0.578008
0.011355 -0.0141577 0.58546
0.0556424 -0.042726 0.585628
0.0136492 -0.0141811 0.584343
0.053184 0.00857981 0.577946
0.0433435 0.0180104 0.580189
0.0457554 0.0219593 0.584179
0.0176207 -0.00752606 0.587515
0.0506617 -0.0257908 0.585043
0.0505352 0.0202207 0.578593
0.0446085 0.00217547 0.583003
0.0364635 -0.0309338 0.586509
0.0298536 -0.0312963 0.586201
0.0265109 -0.0287715 0.585035
0.0594955 -0.0287926 0.584587
0.0192287 -0.0164464 0.582559
0.0554531 -0.0319049 0.585455
0.0574715 -0.0326201 0.584584
0.037556 -0.0178771 0.585031
0.054123 -0.0355568 0.586502
0.0246064 -0.00898925 0.583925
0.0486736 -0.0336576 0.585987
0.0134531 -0.0148917 0.584572
0.0399091 -0.0386228 0.587022
0.0486538 -0.0127625 0.583932
0.0436758 0.0194244 0.580621
0.0395015 -0.0389228 0.587479
0.0418076 -0.0199521 0.585279
0.0471998 -0.0107077 0.587122
0.0473084 -0.00791821 0.58285
0.0197092 -0.00603124 0.584904
0.0506215 -0.0426608 0.586914
0.0465417 -0.0378291 0.586478
0.0452159 0.00892744 0.581127
0.067352 -0.0433783 0.581618
0.0664727 -0.0408946 0.580504
0.0106156 -0.0238808 0.586411
0.0495933 -0.0367547 0.586266
0.053985 -0.0297205 0.585006
0.039565 -0.027606 0.585858
0.0739423 -0.0425491 0.582614
0.0625127 -0.027884 0.584544
0.0692646 -0.0425431 0.582532
0.0465683 0.000179057 0.583486
0.015725 -0.0306132 0.58666
0.0488643 0.0187421 0.57809
0.0342697 -0.0160846 0.583999
0.0374561 -0.0167687 0.585045
0.0179653 -0.0151766 0.583909
0.0685867 -0.0406331 0.579983
0.0475302 -0.00491269 0.583725
0.0525469 -0.0337857 0.58583
0.0504792 -0.0359317 0.586436
0.0475577 0.00948605 0.578555
0.0226252 -0.0326058 0.585774
0.0145108 -0.0148918 0.584575
0.0505032 0.0228418 0.579752
0.0245296 -0.0318748 0.585697
0.0625468 -0.0435709 0.581513
0.0175757 -0.0136093 0.584
0.0453628 0.0210188 0.580445
0.0576129 -0.0267338 0.584998
0.0545088 0.0194773 0.577738
0.011045 -0.0215579 0.585068
0.0534836 0.0228347 0.579573
0.0395275 -0.029007 0.585865
0.0195014 -0.0150301 0.582909
0.0533993 0.0233127 0.580286
0.037625 -0.00271498 0.583867
0.0515002 -0.0348436 0.585981
0.0532527 0.0150338 0.576264
0.0726671 -0.0327144 0.584469
0.0204106 -0.0307674 0.585571
0.0575228 -0.0378255 0.584082
0.0175399 -0.0108285 0.583815
0.0275804 -0.0322047 0.586189
0.0321662 0.00172691 0.584174
0.045541 0.0071289 0.581443
0.0444013 0.00217644 0.583251
0.0465743 0.000970176 0.583091
0.045553 -0.0337613 0.586326
0.0325747 -0.0337533 0.586772
0.0359614 -0.0374059 0.586974
0.0375203 0.00925617 0.58291
0.017066 -0.010351 0.584119
0.0597774 -0.0380979 0.580566
0.0345459 0.00112176 0.583564
0.0377234 -0.0288654 0.586064
0.0205966 -0.0178252 0.580293
0.0203954 -0.0176251 0.580053
0.0504176 -0.0297567 0.58572
0.0605014 -0.0287962 0.584662
0.0658155 -0.0417586 0.580001
0.0373713 -0.0249574 0.585887
0.0591788 -0.0408882 0.582551
0.0136179 -0.0188391 0.585163
0.0406589 0.0078548 0.583267
0.0463605 0.0142938 0.577745
0.0455324 0.00421156 0.583258
0.0373947 -0.0288748 0.586256
0.0401662 0.0142046 0.581954
0.0405375 0.0142357 0.58235
0.03358 -0.0239505 0.584413
0.0501736 0.023347 0.58114
0.0485927 0.00442808 0.581995
0.057544 -0.0308459 0.585321
0.0574717 -0.0308769 0.584714
0.0184021 -0.0261709 0.583403
0.0454156 -0.0305939 0.586291
0.0425535 -0.0277939 0.585829
0.026539 -0.0270205 0.584385
0.058603 -0.034724 0.583715
0.0244818 -0.0188741 0.580321
0.0431766 -0.0325009 0.586066
0.0663786 -0.0377329 0.580337
0.0345473 0.00217773 0.583589
0.029412 -0.012752 0.583451
0.0184719 -0.0159125 0.583225
0.0455571 -0.0348738 0.586487
0.0252952 -0.0154387 0.582409
0.0190797 -0.0256161 0.581078
0.0183758 -0.0118616 0.584164
0.0665584 -0.0379572 0.579943
0.0737023 -0.0355066 0.580723
0.0635134 -0.0308579 0.583642
0.059593 -0.042971 0.584769
0.0455518 0.0201138 0.580304
0.0504335 -0.0318862 0.585905
0.0199473 -0.0183763 0.580104
0.0514537 -0.0397701 0.586488
0.0225657 -0.0318804 0.585799
0.0244593 -0.020787 0.580433
0.0314984 0.00564111 0.582992
0.059787 -0.0426561 0.58408
0.0453799 0.0201633 0.579811
0.0454666 -0.029483 0.586297
0.0436713 -0.0405611 0.587629
0.0345977 -0.0281624 0.586146
0.0613767 -0.0418496 0.581264
0.0588773 -0.0353171 0.582548
0.0265563 -0.0218345 0.580363
0.0356345 -0.00763329 0.584103
0.0468327 -0.0320606 0.586326
0.0674458 -0.0358788 0.58027
0.0234465 -0.0137165 0.583855
0.0592417 -0.037465 0.58317
0.0592539 -0.0377102 0.582302
0.0375438 -0.0238489 0.585626
0.0574183 -0.0288332 0.585412
0.0345362 0.00624823 0.5834
0.0334219 -0.00277148 0.583955
0.0354721 -0.00189593 0.583913
0.0346076 -0.00180958 0.583879
0.0293759 -0.000877703 0.584233
0.0234358 -0.0335853 0.58737
0.0374774 -0.00884843 0.58459
0.0146352 -0.0197023 0.584852
0.0464487 -0.0197512 0.585305
0.0497848 0.000216619 0.583036
0.0515561 -0.0368157 0.586273
0.0676445 -0.0350284 0.58026
0.058656 -0.028931 0.585348
0.06441 -0.0476683 0.586311
0.065559 -0.0476223 0.585746
0.0284809 -0.0226407 0.582912
0.0422148 0.009953 0.58255
0.0454346 -0.0197757 0.58491
0.070432 -0.0328095 0.583473
0.0435948 -0.0318907 0.585987
0.0358459 -0.0173244 0.585089
0.067543 -0.0466087 0.584899
0.034577 -0.00461384 0.584091
0.0625532 -0.0473362 0.585952
0.0656177 -0.046972 0.585188
0.065389 -0.0466976 0.584998
0.0664782 -0.0469096 0.585249
0.0601982 0.0179984 0.579801
0.0245438 -0.0279468 0.584593
0.0264816 -0.0297807 0.585342
0.0692182 -0.0328034 0.58426
0.0504876 -0.0238029 0.585028
0.0365172 -0.0258399 0.586154
0.0495846 0.00112081 0.583046
0.0300518 -0.0169951 0.584164
0.0318625 -0.000839811 0.584142
0.0684824 -0.0467184 0.584853
0.0186274 -0.0107989 0.583849
0.0614584 -0.0465528 0.585623
0.051304 0.000920078 0.583177
0.0134096 -0.0238058 0.585311
0.0137668 -0.0239771 0.585063
0.0153407 -0.0210096 0.584538
0.0156439 -0.0209016 0.583637
0.0534018 -0.030766 0.585545
0.0684586 -0.045871 0.58465
0.070306 -0.0463468 0.584934
0.0178624 -0.018991 0.580562
0.0493232 -0.0219768 0.58495
0.0462793 0.0152407 0.578462
0.0406938 -0.0160173 0.585216
0.0445308 -0.0249265 0.585404
0.0628076 -0.0427331 0.581021
0.0537985 -0.0313 0.58627
0.0705755 -0.035845 0.581342
0.0145138 -0.0168596 0.584696
0.0534025 -0.0258 0.585251
0.0485116 0.00719886 0.581023
0.0634923 -0.0457346 0.584837
0.0665607 -0.0458939 0.584665
0.0675428 -0.0457516 0.584571
0.0705132 -0.0456672 0.584458
0.0553146 0.0187002 0.576797
0.0679734 -0.0311297 0.58308
0.0701356 -0.0358616 0.580396
0.0595479 -0.0456118 0.585589
0.042951 -0.0389329 0.587123
0.0712628 -0.0455079 0.584514
0.0305345 -0.00779264 0.584732
0.0587194 -0.045482 0.585477
0.0674874 -0.0453744 0.584092
0.0385028 -0.0257955 0.585773
0.0244629 -0.0341122 0.58773
0.0423381 -0.00753454 0.584251
0.044437 -0.037844 0.586709
0.0312669 -0.0216805 0.584297
0.0174188 -0.0308223 0.585832
0.0214826 -0.0059079 0.585166
0.0255336 -0.0287893 0.585287
0.057459 -0.0452592 0.586513
0.0574865 -0.0448762 0.58547
0.0621139 -0.0449658 0.584668
0.0705134 -0.0448364 0.584459
0.0713671 -0.0448393 0.584426
0.0425154 -0.00803335 0.58392
0.0135441 -0.0199004 0.58524
0.0565093 -0.045045 0.587673
0.0565449 -0.0445988 0.586466
0.0577087 -0.0446344 0.584946
0.0593897 -0.0447362 0.585222
0.0643807 -0.0445397 0.58239
0.0649658 -0.0446975 0.583139
0.0655839 -0.0447078 0.583274
0.0656826 -0.0445219 0.582813
0.0687905 -0.0447343 0.583619
