ply
format ascii 1.0
comment Created by Open3D
element vertex 1700
property double x
property double y
property double z
end_header
31.2693 68.6704 603.7
28.5231 43.7739 605.103
36.3295 50.6314 604.709
39.8038 42.2137 605.186
35.0998 43.1469 605.094
26.0151 43.7698 605.045
27.5629 50.6264 604.649
18.4556 68.3496 603.626
40.0789 50.9361 604.611
28.1858 50.934 604.586
22.5641 44.6973 604.883
33.8165 50.6179 604.548
40.0701 51.5506 604.478
39.7897 42.5119 604.971
30.0779 43.4445 604.876
14.0848 62.7405 603.768
33.4988 50.6106 604.461
49.4714 46.8717 604.66
23.9542 50.9189 604.407
49.4714 46.5587 604.66
49.4592 48.581 604.511
26.9396 43.7454 604.709
39.7442 50.5954 604.279
26.2941 50.5939 604.262
29.42 50.9036 604.226
24.4158 50.9031 604.219
22.5381 50.2748 604.185
30.0412 50.5836 604.138
25.0373 50.5822 604.121
22.8466 50.5781 604.073
23.784 50.5768 604.058
24.4088 50.5758 604.045
28.9606 43.7251 604.427
32.536 50.5731 604.013
28.784 50.5724 604.005
22.8551 45.2798 604.299
25.967 50.5659 603.927
23.7917 44.0253 604.254
23.4618 50.869 603.814
34.7375 43.3988 604.24
40.0277 50.5585 603.838
25.3533 44.0214 604.201
23.1631 44.3321 604.173
27.8529 44.0179 604.153
31.2729 50.5528 603.77
34.4195 43.3921 604.147
22.2091 50.238 603.743
27.2256 43.7021 604.11
29.7068 50.5467 603.698
23.77 50.2345 603.702
22.219 44.4765 604.011
26.5964 44.0085 604.023
28.768 50.2318 603.669
22.2081 49.2982 603.715
29.0968 44.0074 604.008
23.4677 44.0042 603.965
22.5172 49.9158 603.626
27.5147 50.2254 603.592
26.2624 50.8453 603.533
24.4027 43.999 603.893
25.3393 44.466 603.867
21.8958 46.4864 603.722
21.8979 45.2407 603.778
24.0726 50.5264 603.455
23.1357 50.0583 603.459
30.943 50.5243 603.431
26.2583 50.2126 603.438
25.0087 50.2122 603.433
23.7724 44.3021 603.764
25.022 43.9889 603.754
21.8933 45.5436 603.651
22.8319 44.6088 603.685
28.4404 50.5175 603.349
23.4572 44.297 603.694
25.9431 49.5824 603.371
21.9892 48.5458 603.426
32.186 50.5145 603.313
24.6899 50.8235 603.275
21.8871 47.0925 603.479
30.9366 50.2016 603.305
24.6927 49.1117 603.343
23.4403 50.51 603.259
22.5052 49.5769 603.304
36.2656 43.3561 603.645
22.0374 48.9536 603.319
29.6846 50.1967 603.247
30.3274 43.666 603.611
26.2503 49.8852 603.255
24.0768 44.4433 603.56
23.4391 50.1952 603.229
22.9817 45.0649 603.517
21.8856 46.1523 603.44
24.688 49.8828 603.227
25.6363 44.5952 603.501
26.5733 44.5951 603.5
30.3231 43.9722 603.525
34.0726 43.6609 603.541
21.8806 47.547 603.301
27.5105 43.9703 603.5
33.738 50.1882 603.144
27.8206 44.4353 603.452
25.6345 44.2797 603.459
49.0473 47.078 603.294
23.5917 49.5633 603.138
24.6839 49.5625 603.128
22.8189 45.5203 603.342
26.8822 44.1207 603.42
21.8783 46.7613 603.237
22.9722 45.983 603.267
38.57 50.1793 603.037
26.5668 44.2718 603.351
24.5366 44.1152 603.345
24.0658 45.0476 603.285
24.5224 50.1758 602.995
28.1259 44.112 603.301
24.3774 44.578 603.269
27.0698 49.9648 602.961
25.6127 50.1716 602.945
24.0615 45.5079 603.177
29.3741 43.6422 603.282
34.348 50.4793 602.893
29.98 50.1685 602.907
24.3654 48.9253 602.971
29.3547 50.1665 602.884
28.7473 43.951 603.234
29.058 44.2609 603.203
25.9218 50.0099 602.876
27.171 49.5436 602.898
31.226 50.1649 602.865
24.5207 48.4558 602.953
24.9981 44.2589 603.175
23.1233 44.5682 603.136
27.9469 50.1601 602.807
22.9634 45.9654 603.036
28.1103 47.0524 602.966
23.1135 48.4499 602.88
23.4239 49.0705 602.837
27.1644 50.4676 602.753
26.5538 44.8744 603.056
23.1081 49.5305 602.74
24.9787 49.84 602.709
23.1163 45.491 602.954
28.1118 44.558 602.998
25.457 45.0229 602.954
29.985 43.9345 603.008
36.2057 50.1469 602.648
29.3597 43.9329 602.986
23.0077 46.5219 602.833
32.7932 43.6213 602.993
26.8478 49.523 602.648
23.1056 48.9013 602.675
23.1049 49.2117 602.656
28.4054 50.1433 602.605
23.7273 49.8324 602.617
30.6071 43.6194 602.967
35.2881 43.6189 602.959
22.1703 48.2786 602.689
22.7894 50.1397 602.561
26.8574 44.5481 602.864
26.8451 49.0502 602.587
30.5847 50.1367 602.526
30.446 44.0802 602.867
35.2831 43.9248 602.874
24.3583 45.1671 602.796
34.9719 43.3017 602.889
23.11 44.8546 602.789
26.2323 43.9224 602.841
25.9078 49.0471 602.55
29.0389 44.5438 602.806
24.9825 44.5434 602.8
24.0428 45.7844 602.708
24.3553 45.4735 602.722
24.3453 49.8206 602.475
23.733 44.5406 602.763
22.792 46.7142 602.629
30.2839 44.5394 602.746
30.8952 48.8871 602.499
26.8446 47.3339 602.577
28.3976 49.5059 602.439
26.2141 49.5044 602.421
26.5365 45.1571 602.662
21.8512 47.9508 602.49
31.8406 43.599 602.685
37.4329 50.1195 602.319
24.0358 46.083 602.533
25.2729 50.1168 602.286
22.9398 47.6331 602.415
22.4687 49.1847 602.324
39.6125 50.116 602.277
32.1306 50.1157 602.273
23.4138 44.527 602.578
26.8295 50.4245 602.238
29.9657 43.5943 602.62
24.3376 49.493 602.283
32.7717 43.9047 602.598
35.8921 43.2824 602.62
33.5308 49.9559 602.226
24.023 50.1106 602.212
23.4028 48.5588 602.295
26.5279 45.4544 602.468
24.3414 47.0064 602.377
25.5873 47.3159 602.347
24.3383 47.9358 602.302
24.3367 48.5561 602.262
23.402 48.2453 602.274
24.6576 44.2082 602.485
27.7739 44.9844 602.439
25.5884 46.0709 602.374
26.2156 44.518 602.457
23.0844 50.4148 602.122
26.8335 46.6909 602.328
27.449 49.7939 602.152
25.3807 45.6553 602.377
23.0891 47.9313 602.244
39.6293 42.9643 602.532
26.8244 50.1032 602.123
33.3701 49.7929 602.139
24.4918 47.4636 602.243
25.581 48.0836 602.2
31.5152 44.0481 602.428
34.3227 43.5819 602.448
29.9548 44.2021 602.401
23.7167 44.9777 602.35
26.8345 44.9778 602.35
24.9529 49.4769 602.086
22.4687 45.1317 602.324
26.8325 45.4421 602.306
22.9321 46.9936 602.213
22.1572 44.8205 602.332
34.0074 43.8893 602.387
25.5748 49.6301 602.055
31.5106 44.5094 602.34
22.773 48.0777 602.127
29.0147 44.9743 602.303
24.0233 46.3708 602.22
33.9869 49.7832 602.023
29.4686 49.6274 602.022
28.3773 49.7822 602.009
22.4657 45.4375 602.245
25.5755 48.5406 602.07
27.4562 44.1954 602.31
29.9492 44.5056 602.288
22.4613 47.2986 602.127
31.8214 43.8845 602.321
33.6928 43.5739 602.337
31.1968 43.8829 602.3
26.2079 44.1932 602.28
27.1429 44.1929 602.275
29.6376 43.8822 602.291
28.7006 44.503 602.254
32.4252 49.622 601.956
24.3328 45.7432 602.165
33.9987 44.5014 602.232
28.0624 49.4647 601.939
38.9891 43.2579 602.278
32.7511 44.1887 602.218
31.8147 44.4987 602.195
27.4354 49.4577 601.853
22.4583 45.7342 602.047
37.4249 43.2515 602.189
32.4169 50.0764 601.801
26.82 46.0442 602.026
24.3258 46.5089 601.99
28.0682 45.1121 602.062
30.5549 47.2838 601.939
27.1363 43.8705 602.129
25.5688 47.5933 601.913
24.3289 44.8009 602.068
24.9514 45.1111 602.049
22.1455 45.7316 602.013
32.105 49.6086 601.794
22.7621 48.5221 601.84
35.998 49.6077 601.784
24.3247 46.0394 601.963
36.4844 43.5567 602.1
22.4539 46.3484 601.929
30.5606 44.1764 602.051
28.0576 47.8987 601.835
30.544 49.7585 601.723
23.3844 47.8976 601.821
35.527 49.7581 601.719
34.9028 50.0678 601.698
24.0099 46.6564 601.883
27.1185 49.1364 601.733
34.2798 49.7561 601.695
28.059 46.655 601.865
22.7562 49.7552 601.683
32.5826 44.4832 601.985
27.4408 44.4822 601.972
27.7493 45.5677 601.905
26.8061 48.5119 601.713
24.635 44.4793 601.933
28.686 44.1688 601.948
24.9442 45.4097 601.875
25.5646 46.4952 601.813
32.4255 43.8583 601.962
26.8068 47.8902 601.729
29.3087 44.1682 601.939
22.9147 47.2695 601.756
26.8069 47.579 601.731
38.6575 43.2357 601.97
33.3411 49.4382 601.616
25.2526 46.0271 601.802
22.137 46.3371 601.783
39.878 50.0579 601.579
26.4884 50.0572 601.57
26.8106 45.7166 601.815
30.239 44.9406 601.852
29.9277 44.7852 601.857
26.1887 44.9397 601.84
23.6941 46.025 601.775
31.0029 49.5895 601.563
35.5373 43.5419 601.895
31.7806 49.5885 601.55
32.0934 49.1236 601.576
29.3034 44.4717 601.83
29.2948 47.5728 601.653
25.5544 48.8119 601.573
26.496 45.7112 601.744
25.562 45.4004 601.753
35.9823 49.586 601.52
30.0659 49.7404 601.504
34.912 43.5391 601.856
23.6925 45.5548 601.735
28.3554 48.9653 601.544
23.6905 46.3296 601.685
29.4432 49.5846 601.503
24.6203 48.1893 601.574
25.8746 44.468 601.78
35.5326 43.8476 601.815
22.6461 48.9111 601.517
29.5992 48.9625 601.511
27.7295 49.5823 601.474
22.4431 46.6374 601.638
29.6004 48.4976 601.536
23.9931 49.7369 601.462
30.8437 49.1169 601.495
28.0497 46.0167 601.666
33.6622 43.8457 601.789
28.3543 48.4964 601.521
25.5558 46.9462 601.606
23.3799 45.0853 601.704
27.4285 45.0852 601.703
34.577 49.5801 601.448
34.5752 50.0444 601.416
28.0412 48.8046 601.482
29.2907 47.2548 601.57
34.2817 44.4643 601.729
26.8001 46.944 601.577
23.5315 46.4787 601.6
28.6738 44.773 601.693
35.0608 43.9976 601.736
32.1029 43.5317 601.754
35.2146 44.4623 601.703
28.6601 49.5765 601.404
30.5299 48.8016 601.445
38.9546 43.5311 601.746
31.1648 44.4609 601.684
25.8613 48.1809 601.47
34.8849 49.5753 601.39
23.9934 48.0253 601.47
22.4389 46.9401 601.527
31.165 44.1497 601.687
26.1785 45.3893 601.605
32.7197 44.7692 601.642
24.9343 44.7689 601.638
28.3606 44.4588 601.655
30.5337 46.6283 601.521
25.8692 44.1473 601.654
31.783 45.077 601.594
26.4869 46.0067 601.536
23.5255 47.5564 601.446
28.9682 49.4155 601.339
22.4357 47.556 601.44
23.9922 47.5559 601.439
29.291 45.0756 601.575
22.1249 47.0901 601.454
22.4333 48.4846 601.375
23.9926 47.0897 601.449
27.7298 46.4696 601.482
28.0391 47.2444 601.437
22.1277 45.3836 601.531
24.9215 48.9478 601.329
36.1451 43.5234 601.64
25.2348 48.0178 601.377
31.4688 45.0731 601.541
32.4075 43.5224 601.626
26.0111 48.6369 601.333
26.4783 48.4819 601.342
24.9283 45.6922 601.493
27.419 45.6922 601.494
28.3569 44.1416 601.576
33.0178 47.2414 601.399
37.367 49.72 601.257
33.0098 49.7196 601.254
35.8097 50.0295 601.237
30.5319 45.5359 601.486
23.37 46.0002 601.451
33.3224 49.0992 601.278
22.74 49.4086 601.255
37.0539 50.0286 601.227
30.5248 47.8597 601.345
22.1265 45.0698 601.498
31.7734 46.62 601.414
28.509 45.0699 601.499
30.5324 45.0696 601.494
24.6168 45.0691 601.488
26.4777 47.8582 601.327
26.7927 46.3086 601.413
25.0786 47.083 601.363
33.3218 48.7872 601.268
26.4809 46.3077 601.401
30.2189 45.3777 601.452
23.5736 47.1337 601.349
27.0973 48.6312 601.263
30.8454 43.8267 601.528
34.5643 49.0951 601.227
37.0518 49.7146 601.193
26.1617 49.0944 601.219
25.2315 47.5447 601.299
38.9394 43.8254 601.511
36.7607 43.5149 601.522
25.0777 46.6144 601.341
33.0228 43.9796 601.49
29.9063 45.0645 601.426
22.1179 47.8532 601.263
30.519 48.473 601.231
31.9326 43.9789 601.48
28.0315 47.543 601.276
27.4162 44.7535 601.431
27.7168 48.7817 601.2
30.8294 48.4717 601.215
32.0736 48.6265 601.205
28.9587 49.7104 601.142
32.3984 44.1329 601.458
33.9519 45.0627 601.403
28.0335 46.3013 601.318
22.117 47.5401 601.24
33.0122 46.611 601.298
30.5143 49.3989 601.138
31.7597 49.0891 601.154
34.257 46.6108 601.295
26.4738 47.5401 601.239
25.2238 49.7082 601.116
31.7688 45.9907 601.326
28.3388 48.1587 601.192
31.4584 45.525 601.342
31.4468 49.3975 601.12
26.468 49.552 601.107
30.5185 47.5387 601.222
27.1 45.6792 601.322
39.4035 43.1996 601.467
29.8983 46.6084 601.264
30.5198 46.9183 601.247
30.5264 44.5938 601.376
46.5226 52.4927 600.935
30.5132 49.0861 601.117
32.0829 44.4384 601.38
31.7612 47.8467 601.182
22.4258 47.8461 601.174
37.0456 49.3953 601.094
22.4249 48.1553 601.15
45.588 52.491 600.915
25.8558 44.7468 601.341
30.1983 50.0132 601.042
29.2688 48.6195 601.119
31.1349 48.774 601.106
28.3371 47.8446 601.156
28.0205 49.7019 601.039
35.8001 49.0828 601.076
23.3627 45.5191 601.263
24.6078 45.3639 601.269
27.1 44.4342 601.322
25.0727 46.1384 601.223
34.2503 46.9128 601.177
49.1697 50.6297 600.973
24.6024 47.5319 601.137
25.8528 45.053 601.273
48.54 52.1768 600.88
27.0922 47.2218 601.149
32.0688 47.8414 601.115
24.6014 47.8411 601.111
38.3889 49.5963 601.015
29.5886 44.4323 601.297
29.8859 49.3889 601.016
28.0293 45.5164 601.228
36.4374 43.8119 601.324
28.9631 45.3611 601.232
38.4608 43.5009 601.329
29.2732 45.515 601.209
38.6152 43.8108 601.31
34.2397 49.3869 600.991
23.6636 49.0766 601.001
36.7388 46.2894 601.164
24.9093 48.457 601.033
35.4833 49.3859 600.979
31.7618 45.5138 601.194
33.0019 46.9076 601.11
31.7563 47.2171 601.09
33.942 44.7384 601.228
33.616 49.3846 600.963
26.4683 46.5968 601.114
22.1122 46.5963 601.108
28.3341 46.9062 601.092
27.7077 48.4546 601.003
34.5509 48.6095 600.994
36.7253 49.5384 600.943
28.0186 48.4542 600.998
37.0386 48.7638 600.98
31.7577 46.2858 601.116
32.6811 49.5375 600.932
36.7273 48.7634 600.975
27.7134 45.9753 601.125
29.2672 46.5946 601.086
28.9581 45.6645 601.129
33.0049 45.0449 601.165
23.3544 46.9028 601.049
28.6373 49.0704 600.925
31.749 48.606 600.952
27.7072 47.8315 600.991
29.259 49.0698 600.918
38.2792 49.0701 600.922
39.521 49.6893 600.886
32.6927 45.0434 601.145
39.832 49.6892 600.886
37.6764 43.4937 601.229
35.4959 44.1135 601.193
29.2705 44.733 601.155
26.9801 48.0367 600.963
30.5051 48.1399 600.958
24.5978 46.9009 601.025
29.2662 46.1264 601.066
28.0253 44.7321 601.143
28.0138 49.0681 600.896
29.5825 44.112 601.173
32.9995 45.9708 601.066
29.416 47.9837 600.95
28.336 44.7313 601.132
23.3534 46.5897 601.023
33.3026 48.448 600.921
28.0155 48.1379 600.933
23.6598 48.6022 600.904
24.6017 44.7303 601.119
35.4925 44.4204 601.135
23.6611 47.8271 600.936
24.599 45.6586 601.052
23.3566 44.7292 601.104
25.9933 47.8261 600.923
30.5077 46.122 601.009
32.9983 45.5025 601.044
35.4803 47.5155 600.929
27.0881 45.0369 601.059
32.6867 45.5017 601.034
34.2436 45.0369 601.059
32.9865 49.0625 600.829
34.2353 47.5143 600.914
34.2323 48.4432 600.861
29.2601 46.8945 600.942
30.8233 44.1063 601.096
39.2251 43.7967 601.117
34.2395 45.9648 600.987
30.1933 46.5835 600.943
25.9448 45.5509 600.999
27.0828 46.5833 600.941
28.9504 45.9634 600.969
28.942 49.0597 600.794
26.1488 46.5819 600.923
24.9054 46.2721 600.939
28.4816 46.5817 600.921
33.2978 48.1301 600.835
39.2239 43.4843 601.099
33.6198 44.5682 601.031
36.5757 44.4133 601.04
26.0429 47.0962 600.87
24.5937 45.9598 600.923
31.7411 48.1274 600.801
34.2299 47.8178 600.819
35.4697 49.0561 600.749
43.2297 52.4598 600.559
34.8638 44.1012 601.026
46.0271 52.4596 600.557
28.4812 45.9592 600.914
26.1484 45.9591 600.913
27.5969 47.0946 600.849
37.3333 49.3643 600.716
34.1326 45.4421 600.932
32.063 44.0997 601.006
34.1371 43.9964 601.012
47.5799 52.4581 600.539
26.1414 48.4344 600.752
34.238 44.7185 600.961
31.4328 46.5765 600.853
36.7173 47.1952 600.811
29.9836 45.543 600.895
27.3889 46.575 600.834
27.0825 44.7167 600.936
35.779 48.5874 600.721
32.9775 49.3601 600.665
31.4329 45.9547 600.855
35.0137 44.5606 600.929
28.9428 46.5733 600.812
33.4602 43.9408 600.96
31.124 45.0247 600.895
31.1191 46.5724 600.8
24.8973 47.5009 600.743
27.0777 45.9526 600.827
28.3173 47.5003 600.737
31.5902 44.7133 600.891
30.0281 47.1903 600.748
26.1403 47.4995 600.726
33.9078 49.3565 600.622
34.2256 47.1899 600.744
26.4522 47.0348 600.748
38.5708 49.3563 600.619
36.1026 43.7832 600.932
28.6328 45.4863 600.831
34.2198 48.7364 600.642
31.738 46.8789 600.743
27.0777 45.3306 600.828
27.5344 49.0451 600.615
41.0912 40.3736 601.107
32.9784 47.8069 600.682
31.1091 49.0445 600.608
37.0159 49.0447 600.611
32.6711 46.5684 600.748
26.4482 48.1158 600.657
36.7154 45.949 600.781
46.9487 52.4473 600.416
32.9878 44.555 600.852
32.9766 48.1151 600.648
36.6177 43.9866 600.878
31.7345 47.4956 600.677
31.1207 44.7088 600.831
30.0286 45.9472 600.758
31.1181 45.4826 600.782
24.5852 46.5659 600.716
32.3641 44.7081 600.82
41.9743 52.4449 600.388
29.5641 45.0175 600.799
32.5058 49.0411 600.567
24.8924 47.8025 600.626
38.256 48.7295 600.557
36.3881 49.3474 600.511
32.04 48.1093 600.575
25.8242 47.49 600.607
35.1587 45.0136 600.748
30.171 49.3464 600.499
25.8252 46.8701 600.63
32.9703 48.5722 600.534
38.2559 48.1077 600.555
37.4426 43.6704 600.805
30.7953 48.1073 600.551
34.2147 48.1074 600.552
29.5544 47.1787 600.6
37.6468 44.3924 600.756
33.908 46.559 600.626
35.1418 49.4986 600.46
39.0273 49.3438 600.467
35.4575 47.9512 600.542
37.027 43.462 600.791
35.46 47.022 600.585
36.0748 49.0333 600.47
36.7048 46.5575 600.608
37.9384 49.3425 600.451
27.3813 45.3185 600.667
30.0196 46.8661 600.578
27.6849 48.1038 600.507
27.0648 47.4849 600.541
36.5403 49.0322 600.458
29.5515 47.4849 600.541
30.1721 47.7941 600.521
28.9267 48.5676 600.476
35.4538 48.5678 600.479
34.9858 49.0316 600.45
38.5763 44.544 600.705
34.5344 44.3887 600.706
31.4094 49.6495 600.406
33.5992 45.0073 600.663
39.8012 49.34 600.421
39.5116 43.614 600.742
34.0523 49.0298 600.428
32.6544 48.72 600.44
43.8272 52.4309 600.227
37.6394 45.0055 600.639
33.9063 45.624 600.596
31.417 46.2422 600.55
29.8549 49.0269 600.392
37.9541 43.4554 600.699
34.5317 43.7634 600.659
35.4603 45.0018 600.589
27.3746 46.0844 600.519
28.9282 46.239 600.509
31.4075 48.7143 600.369
28.4593 47.167 600.452
31.4099 47.7857 600.416
37.004 47.7859 600.418
30.0086 48.558 600.358
27.3675 48.4031 600.364
37.002 48.0941 600.386
35.4569 45.4638 600.532
30.0149 46.2371 600.484
25.9744 46.0819 600.487
42.4222 52.4223 600.13
36.0825 44.0698 600.598
28.9226 47.6284 600.392
37.6344 44.6886 600.559
32.9625 47.4731 600.392
38.2419 48.4009 600.336
24.5744 46.2346 600.452
28.6147 46.2346 600.452
37.0144 43.7581 600.586
23.6374 48.09 600.334
34.8341 44.9961 600.514
39.4805 49.3277 600.271
33.579 48.7089 600.302
27.6784 47.4711 600.367
32.9646 46.2329 600.43
39.8135 43.1378 600.606
36.5356 47.006 600.38
33.2816 44.0657 600.542
28.9211 47.1599 600.361
36.5431 44.6846 600.505
41.9997 40.3497 600.751
30.7842 47.6239 600.335
35.1422 45.3034 600.466
30.9404 47.1591 600.351
31.407 47.0044 600.36
30.0068 47.623 600.323
36.6872 47.6227 600.319
32.6526 45.9205 600.408
27.3669 46.8483 600.351
32.6466 47.621 600.298
32.3432 45.1453 600.432
32.6446 48.0841 600.261
37.9375 44.9903 600.436
35.4474 46.0731 600.372
43.5008 52.4119 600.01
36.9923 48.3922 600.228
31.0958 46.0714 600.351
39.1643 49.0101 600.187
33.4247 46.5352 600.32
31.4 48.0813 600.226
35.4437 46.5344 600.309
37.9364 44.5228 600.418
38.5504 46.5337 600.301
29.5445 44.6768 600.4
44.74 52.4084 599.97
36.0718 44.3675 600.419
40.0921 49.6262 600.123
33.5707 49.0074 600.153
26.1171 48.0786 600.193
32.6443 46.9962 600.255
37.4701 44.0564 600.416
38.5567 44.0553 600.4
34.0436 46.2211 600.276
39.1779 44.0548 600.394
33.2632 47.1481 600.211
36.3768 45.1372 600.325
37.9166 49.0035 600.106
43.5446 40.0296 600.615
37.9239 46.8383 600.222
34.8241 44.6724 600.341
25.808 46.5282 600.23
38.968 44.466 600.351
37.6041 49.3116 600.075
29.5358 46.5276 600.222
27.3554 48.6922 600.098
33.5784 45.2901 600.291
38.0892 43.7429 600.378
33.8785 48.5374 600.104
39.1581 48.6917 600.091
31.3916 49.0001 600.065
33.8831 46.8354 600.185
36.3585 49.6179 600.023
27.0498 46.216 600.21
30.1487 48.9993 600.054
30.7764 46.5245 600.182
30.7826 44.3588 600.303
34.4988 48.0702 600.088
31.3915 48.3788 600.063
28.5951 48.5323 600.041
47.2131 52.3959 599.827
34.9704 45.9034 600.185
28.2918 45.5935 600.195
29.5309 46.8306 600.123
32.4766 48.5312 600.027
30.1485 48.0672 600.051
37.6103 45.5919 600.174
27.0446 46.8284 600.095
28.5942 48.065 600.023
37.9145 47.1372 600.072
39.792 43.4252 600.283
33.8734 48.0642 600.013
45.3988 40.0199 600.469
30.7746 45.5898 600.146
42.4446 40.3292 600.446
36.0574 44.9711 600.181
25.8027 46.2079 600.105
37.9158 46.5176 600.092
29.5326 45.2801 600.158
45.0348 52.3901 599.761
35.4368 44.6613 600.191
37.6005 47.754 600.018
35.7503 43.7328 600.239
28.9031 48.0622 599.988
33.2519 47.7532 600.007
33.8789 45.8977 600.11
35.7353 48.0622 599.988
31.3892 47.4437 600.02
38.5369 46.2069 600.092
48.4989 41.2564 600.371
29.5303 45.5871 600.111
31.0761 48.0607 599.97
34.4931 47.7516 599.987
36.0426 48.679 599.935
32.3255 45.5867 600.105
33.568 45.5867 600.105
32.0102 47.1328 600.017
36.5189 45.5868 600.106
38.0126 47.648 599.987
33.8729 47.1319 600.005
36.4564 48.4716 599.93
48.1885 40.6352 600.376
28.2846 46.2031 600.043
36.355 47.5946 599.965
32.32 46.5105 600.002
28.5906 47.4378 599.946
28.2857 45.2731 600.066
28.9026 46.8191 599.977
34.9594 46.5101 599.996
29.8322 47.4371 599.937
33.5601 46.9734 599.964
39.1585 44.6543 600.097
36.3562 46.5091 599.984
36.3577 46.0452 600.009
37.9176 44.0348 600.122
34.9614 45.5811 600.031
24.8616 48.0538 599.883
36.5056 48.0541 599.887
35.003 48.5692 599.857
41.5037 40.3209 600.323
37.4331 48.9805 599.824
34.4995 44.0333 600.1
32.011 44.96 600.032
46.3192 40.0095 600.313
32.4211 46.093 599.957
35.1074 47.5872 599.872
40.0689 49.287 599.776
37.5994 45.2681 600
32.3144 46.9683 599.899
38.8272 48.9767 599.777
33.8643 47.5856 599.852
44.0906 52.3748 599.585
38.8449 44.0296 600.05
39.4649 44.3389 600.033
38.5303 45.112 599.988
34.8025 45.2657 599.968
33.5577 46.0384 599.921
36.666 45.1108 599.972
44.7619 40.0062 600.264
37.8975 48.0474 599.803
35.0035 46.9139 599.865
44.3975 52.3707 599.538
48.7477 51.1354 599.609
27.3402 48.0444 599.766
37.8931 48.6626 599.733
34.9518 46.1895 599.866
39.4448 48.6622 599.728
37.2864 44.4888 599.96
38.5122 48.9709 599.706
37.2715 48.6617 599.722
31.0657 47.7343 599.77
32.0026 45.8797 599.874
32.3075 47.7343 599.77
36.043 44.6427 599.941
38.9802 48.0426 599.743
36.0394 45.2591 599.88
41.9573 40.6195 600.144
30.7612 45.1042 599.885
31.9988 46.4951 599.803
42.8411 52.3649 599.472
37.589 45.8767 599.835
29.5159 45.8754 599.819
39.7692 43.7109 599.939
30.761 44.6383 599.882
33.245 44.6382 599.882
35.7186 47.7293 599.707
36.0262 48.3464 599.661
31.999 45.564 599.806
31.0593 48.3453 599.647
38.5186 45.564 599.807
36.3409 46.8 599.732
38.9804 46.4908 599.747
33.2412 45.0988 599.813
36.9687 44.4802 599.845
35.0938 48.0343 599.639
37.5766 48.0341 599.637
27.3347 47.5692 599.645
39.4529 44.0149 599.85
39.5896 48.9597 599.57
37.581 46.4877 599.707
30.7536 45.8691 599.737
37.8846 48.3414 599.599
38.983 44.9417 599.787
37.5754 47.4118 599.617
30.7486 46.7929 599.641
31.0572 47.4109 599.606
31.0585 46.7921 599.631
34.7779 48.337 599.545
28.573 47.7189 599.576
32.295 48.3365 599.537
35.7112 47.4091 599.582
36.0273 45.5543 599.679
42.2095 52.0409 599.314
33.5351 48.3348 599.517
34.4715 46.4804 599.613
37.5681 48.4887 599.501
29.8117 48.025 599.523
36.9625 44.0072 599.744
43.9138 52.0389 599.291
41.3214 40.6051 599.932
38.9119 48.4359 599.488
48.4593 41.5332 599.88
35.7202 44.0064 599.735
34.4754 44.9336 599.68
41.5867 52.0379 599.28
34.7781 47.096 599.548
33.2312 45.5509 599.633
45.6702 39.9854 599.951
37.2675 44.9319 599.657
48.1493 40.9126 599.887
45.0478 39.9843 599.934
34.4744 44.622 599.663
38.5045 45.8576 599.586
43.4926 40.2924 599.899
43.1811 40.2914 599.884
39.5796 48.482 599.418
36.0161 47.0917 599.493
37.5676 47.0917 599.493
38.1989 44.0011 599.662
31.9845 46.164 599.535
32.2909 47.3996 599.463
43.1319 52.031 599.2
35.7141 44.3093 599.632
36.0164 46.6265 599.497
37.8819 45.545 599.556
47.2164 39.9799 599.869
38.1957 44.4629 599.611
33.528 48.0144 599.391
31.985 45.2337 599.544
34.4621 46.933 599.448
34.4605 47.3963 599.421
36.9436 47.0874 599.438
38.9657 45.5423 599.521
42.8656 40.2868 599.815
38.9061 47.6014 599.398
36.0157 46.0051 599.486
37.096 47.5492 599.393
37.2579 45.5409 599.503
38.9656 45.2319 599.519
45.97 39.9761 599.812
38.9583 47.0849 599.407
38.4881 48.0096 599.331
30.7377 46.1557 599.427
33.2254 44.3016 599.528
37.5609 46.773 599.386
38.4916 46.773 599.386
32.2826 48.0078 599.308
31.974 47.3897 599.338
34.4606 45.8451 599.422
44.7222 40.2812 599.732
36.0052 47.5427 599.312
46.5846 39.9707 599.73
33.2145 46.7688 599.332
37.8704 45.9966 599.375
39.1103 46.1505 599.359
33.2163 45.8406 599.364
38.4832 47.6933 599.255
37.5579 46.1489 599.339
37.0962 45.0675 599.397
44.0967 40.2769 599.668
38.4795 48.4641 599.197
28.5592 46.7653 599.287
38.9508 46.7656 599.29
39.5794 44.4484 599.416
39.5692 47.0735 599.261
39.4104 47.9995 599.204
46.2154 52.0108 598.968
38.0242 45.0643 599.353
40.9886 40.5831 599.606
39.5133 47.4819 599.197
43.7817 40.2726 599.604
45.4382 52.0085 598.941
33.2068 47.3783 599.193
46.2642 40.2724 599.601
38.1687 47.3778 599.188
37.0362 45.9363 599.263
29.4877 46.1418 599.246
38.4787 47.0675 599.185
48.3817 51.6967 598.92
42.5359 40.5789 599.544
35.6939 44.9046 599.292
42.4897 52.0042 598.892
39.5677 45.831 599.238
47.037 40.1145 599.561
39.5705 44.9037 599.28
39.7123 48.2996 599.081
41.8682 52.0024 598.871
34.753 47.5271 599.114
39.7129 47.9902 599.089
41.9101 40.8842 599.47
39.7262 43.9738 599.29
48.4198 42.1198 599.392
34.7494 47.9873 599.052
45.3244 40.2646 599.485
47.8067 40.2645 599.484
40.0155 48.9114 598.977
45.0122 40.2629 599.459
41.5977 40.5718 599.44
39.7092 47.6756 599.033
42.2179 40.5715 599.435
44.497 51.9953 598.79
35.6812 46.5941 599.08
48.0601 51.9941 598.775
33.5073 47.5197 599.021
39.5581 46.13 599.093
43.4094 51.992 598.751
36.9236 45.5113 599.113
33.2 46.1283 599.07
37.2268 47.0532 599.003
35.9835 47.979 598.949
34.4413 45.5094 599.087
40.0311 43.3476 599.21
38.8841 45.9208 599.06
42.9885 40.5667 599.364
35.6761 47.0525 598.994
34.4417 45.1998 599.094
40.0105 48.5952 598.902
35.6803 45.5077 599.065
36.9217 45.1989 599.083
37.2212 48.131 598.912
38.1565 46.5875 598.995
37.2267 46.1228 599
46.5023 51.985 598.671
39.5501 46.5856 598.971
31.9531 46.7388 598.947
43.4486 40.5618 599.291
35.6776 45.1941 599.019
39.0802 47.3549 598.898
37.22 47.3545 598.892
38.4596 47.3541 598.888
38.1542 45.1897 598.96
45.9264 40.2483 599.242
36.9082 46.5773 598.864
35.6703 45.9598 598.896
42.5106 40.8649 599.187
47.4757 40.247 599.223
41.2697 40.8645 599.181
47.5776 51.9749 598.554
39.7049 44.5703 598.968
48.0911 41.1733 599.162
39.5463 45.4962 598.914
34.4287 46.1126 598.867
38.1447 47.0381 598.811
44.9425 51.9729 598.531
40.9566 41.0166 599.138
45.871 51.9719 598.52
38.149 45.4935 598.878
35.6698 44.5644 598.889
39.542 45.1813 598.849
44.0087 51.658 598.472
38.1423 46.1054 598.773
40.3001 49.1903 598.599
43.744 40.548 599.088
41.1036 41.4736 599.02
46.1744 51.5002 598.437
47.152 40.5456 599.051
48.6526 51.3454 598.439
44.0499 40.5442 599.032
44.6238 51.4979 598.412
39.99 48.1056 598.596
46.48 51.6503 598.383
46.9429 51.9582 598.362
45.2396 51.4937 598.363
37.2033 46.5587 598.624
47.7649 40.5394 598.961
46.7857 51.6459 598.332
45.5958 40.2303 598.974
41.9335 51.5423 598.327
42.4907 41.1557 598.906
43.5741 40.8443 598.885
39.9969 43.6206 598.699
44.3469 40.8423 598.856
42.177 40.8422 598.854
45.4325 40.5329 598.865
40.5927 49.4791 598.345
41.5556 40.8406 598.832
46.0506 40.5313 598.841
38.1266 45.7765 598.526
42.9478 40.8382 598.797
46.8244 40.2204 598.826
47.7512 40.8377 598.789
44.3444 40.2201 598.822
43.3686 51.3239 598.188
44.4967 40.5276 598.786
41.2016 51.0146 598.193
41.5085 51.4757 598.153
44.0293 40.8352 598.751
44.9592 40.5254 598.754
39.9724 47.4651 598.332
42.7412 51.9331 598.073
45.4199 40.8316 598.699
39.9753 46.3844 598.375
44.9088 51.4697 598.083
46.5051 40.2123 598.706
44.2861 51.6202 598.034
46.7637 51.312 598.05
42.6335 51.515 598.011
43.9783 50.6936 598.058
46.451 51.3086 598.01
40.2901 43.4476 598.451
47.3774 51.6158 597.983
41.2244 41.1294 598.523
39.9738 44.0599 598.353
48.3366 43.9057 598.361
46.4925 40.5112 598.544
45.5159 51.3013 597.925
48.3415 42.5163 598.422
44.5883 50.9927 597.935
48.3008 51.3007 597.918
41.5299 41.5898 598.462
41.0642 41.7436 598.446
39.9669 45.1361 598.25
43.9648 51.2969 597.874
39.9596 46.0566 598.139
41.8347 41.5849 598.391
47.4143 40.5047 598.447
39.9542 46.9791 598.06
41.178 50.6759 597.85
39.9545 46.6698 598.063
43.5453 51.4951 597.78
43.0286 51.2876 597.766
40.5626 48.8235 597.901
48.3229 43.5837 598.192
41.9454 51.1326 597.762
40.5854 42.658 598.237
42.6029 41.4241 598.305
46.0627 40.9094 598.326
43.025 51.5927 597.716
42.7567 41.1134 598.291
47.0932 40.8047 598.304
44.6142 40.8032 598.283
44.9203 41.4192 598.235
43.3328 50.9721 597.694
43.3719 41.4191 598.233
39.9491 45.5803 597.984
40.264 44.0386 598.064
43.9893 41.4173 598.207
45.4935 51.5853 597.63
47.3972 40.7998 598.232
42.1315 41.1077 598.207
47.9675 51.2753 597.622
43.3682 41.1059 598.182
47.0327 51.5771 597.535
40.5699 43.106 598.009
43.9828 41.1017 598.12
47.4972 51.2685 597.542
45.53 41.101 598.11
39.9429 44.7995 597.89
41.8142 41.1001 598.097
40.5523 47.1095 597.75
43.4766 50.6501 597.544
41.5034 41.0989 598.08
40.5479 48.0325 597.685
41.499 42.0231 598.016
44.0917 51.1099 597.497
45.9472 51.1099 597.496
44.9081 40.7889 598.073
41.1572 50.0318 597.548
46.4555 40.7885 598.068
43.6679 41.0967 598.047
40.5522 46.3358 597.748
48.2658 50.9544 597.486
39.9397 44.4865 597.843
45.0594 41.0953 598.027
42.1165 41.5573 597.995
42.5777 42.0187 597.952
47.6413 51.5663 597.41
46.7613 40.4757 598.019
41.9554 42.0153 597.905
44.4334 41.3984 597.934
47.5287 41.0892 597.939
45.5153 41.3972 597.917
47.945 51.5604 597.341
45.7799 51.5594 597.33
42.5351 51.0978 597.354
42.5728 41.7043 597.883
43.5018 41.5501 597.891
41.0232 42.0114 597.849
42.5356 50.4798 597.36
45.2023 41.3939 597.869
40.2246 48.1704 597.477
42.9954 50.9389 597.305
45.0043 50.9381 597.295
43.0326 41.3906 597.821
40.2281 46.4735 597.53
47.011 51.2442 597.259
40.5482 43.547 597.69
40.8335 49.705 597.337
41.1401 50.3201 597.299
43.61 50.9345 597.253
43.0315 41.0801 597.806
44.2681 41.0791 597.791
42.064 50.6251 597.249
41.7546 50.6247 597.246
46.1226 41.3867 597.766
41.4433 50.9311 597.213
44.5355 50.6232 597.227
40.5328 46.0044 597.462
42.987 50.6199 597.188
40.5293 46.6189 597.411
46.0763 50.6179 597.165
48.2743 43.0758 597.59
43.9146 50.0019 597.191
40.2163 47.0782 597.354
44.8764 41.6881 597.65
46.4253 41.0714 597.679
42.0566 50.3071 597.144
47.9245 50.9203 597.086
44.5662 41.0686 597.639
41.5888 50.4565 597.083
44.061 50.4563 597.082
40.2145 45.9941 597.328
44.869 41.9906 597.553
46.7298 40.7578 597.616
46.5303 50.9165 597.041
42.5154 49.9923 597.076
45.4855 41.9886 597.525
47.0333 41.526 597.543
41.1529 42.4498 597.486
42.0469 50.9134 597.006
43.63 41.6796 597.528
41.0215 49.4771 597.074
44.9825 50.6045 597.007
43.2839 50.2965 597.019
40.5222 45.0649 597.307
42.491 42.3961 597.457
42.974 50.2955 597.007
45.5984 50.6021 596.979
47.9159 50.6021 596.979
40.2135 44.6017 597.314
46.5252 50.6019 596.976
47.9547 41.9842 597.462
40.2112 45.0629 597.279
47.9514 42.4451 597.421
42.0754 42.2898 597.41
42.9717 49.9839 596.976
40.5224 43.9831 597.309
45.7906 41.0571 597.471
40.5151 45.6752 597.201
47.9525 41.5184 597.435
45.4369 50.9032 596.886
45.4764 41.671 597.405
44.548 41.6703 597.395
40.8345 42.2857 597.353
46.7145 41.0537 597.422
47.0231 41.0531 597.413
44.5112 49.9777 596.901
44.0823 41.6686 597.37
40.5146 44.7473 597.194
43.4806 50.0798 596.892
43.8942 49.6697 596.914
41.7598 42.2833 597.319
42.0379 49.9757 596.878
40.5104 45.3609 597.132
47.4395 50.8973 596.817
41.5217 50.0772 596.86
45.9354 41.512 597.343
41.1364 42.8964 597.246
41.7278 49.6653 596.861
43.9214 41.9717 597.284
44.193 50.894 596.778
41.4458 42.2785 597.25
47.2835 50.2778 596.797
44.5382 41.9703 597.263
47.6322 41.3543 597.296
47.5947 49.6624 596.826
46.0819 42.2776 597.238
44.5049 49.6617 596.817
46.6001 41.4559 597.276
40.9537 49.0455 596.836
43.4527 41.9669 597.216
40.1922 45.5051 596.997
46.6804 45.6587 596.985
44.1891 49.9628 596.724
42.9864 41.6553 597.179
43.4171 49.6542 596.727
42.0536 42.577 597.101
40.9567 46.1141 596.88
42.0231 49.6493 596.668
41.1179 44.1131 596.977
41.5874 42.5743 597.063
41.009 45.5486 596.892
44.1812 50.2627 596.618
46.0699 41.9575 597.082
42.9783 42.111 597.067
42.0222 49.0305 596.655
45.7199 50.8744 596.548
45.1415 41.6473 597.066
47.5726 50.5656 596.548
40.4935 44.4151 596.883
43.8989 42.5682 596.978
42.6627 42.568 596.975
42.3204 50.8708 596.506
45.7565 41.6445 597.026
48.1876 50.563 596.518
45.5121 50.1518 596.523
44.0496 42.8735 596.927
47.9076 43.7967 596.876
47.2994 41.3336 596.998
46.948 50.8668 596.46
44.0515 42.1029 596.952
46.9513 50.0985 596.501
45.6473 42.1539 596.945
42.0122 49.3276 596.513
42.4741 49.4806 596.496
45.1297 42.0998 596.909
40.9031 43.0739 596.85
42.4482 42.9714 596.856
44.4771 50.2481 596.444
41.1019 44.7137 596.745
43.4284 42.2524 596.882
44.9396 50.0932 596.437
48.0263 50.0927 596.431
44.8897 49.5289 596.458
46.3299 49.6312 596.451
43.2715 42.5589 596.848
41.5699 43.0198 596.813
41.3891 49.4754 596.433
46.0169 50.0896 596.396
40.9484 43.4793 596.76
44.0637 49.423 596.421
40.9283 48.5519 596.466
42.9592 42.5556 596.802
47.0936 50.5487 596.349
48.1835 48.0888 596.466
42.6447 43.4766 596.723
40.7948 42.5534 596.77
46.0156 49.4709 596.379
40.7833 45.3207 596.603
47.5546 50.2379 596.324
43.0818 49.4694 596.361
46.4741 50.0833 596.32
44.7806 49.0075 596.375
44.5003 42.2435 596.756
45.3975 49.007 596.369
40.7699 48.084 596.406
41.4052 43.4724 596.665
41.5402 48.3911 596.386
42.0016 48.5435 596.364
46.506 42.0872 596.729
47.892 42.8559 596.682
41.3856 48.0821 596.383
43.568 42.8556 596.678
46.3485 42.5477 596.691
42.0023 48.0813 596.372
47.8896 43.1625 596.651
42.4612 49.0025 596.314
42.4632 48.3876 596.343
41.5537 44.0838 596.581
45.5448 49.4624 596.277
44.0035 49.0015 596.302
42.6378 43.1607 596.626
43.5383 49.3076 596.271
46.0082 49 596.283
44.802 42.2367 596.66
42.0188 43.0049 596.607
43.5646 42.5434 596.631
40.779 44.0808 596.54
46.3478 41.6205 596.681
42.0129 44.0795 596.523
47.8822 43.4646 596.559
48.1684 48.3824 596.28
46.9625 41.9267 596.643
46.9282 49.611 596.208
46.6383 45.3088 596.446
42.4753 44.0788 596.512
40.7675 46.5378 596.371
46.6346 46.077 596.4
44.1787 42.5401 596.583
41.9961 47.7656 596.285
44.9497 42.5392 596.571
46.6372 44.999 596.433
47.541 49.9149 596.152
44.1786 42.2312 596.582
45.5655 42.8463 596.548
41.5443 44.5369 596.445
40.9297 43.7681 596.486
40.914 47.7634 596.258
47.875 44.0756 596.469
41.3877 44.9975 596.413
46.6147 49.6058 596.145
40.9164 46.8403 596.293
41.3707 48.9905 596.168
44.483 42.5358 596.524
42.9116 49.2968 596.14
43.0889 43.6118 596.46
45.5634 42.5356 596.52
43.0912 42.9965 596.49
43.5287 48.9882 596.139
43.0658 48.9881 596.139
46.3325 42.8417 596.484
42.4174 43.6605 596.423
41.6742 49.2931 596.095
41.0613 48.0638 596.156
46.932 46.2202 596.256
45.681 49.9056 596.041
41.5919 43.6581 596.39
47.2248 49.5984 596.056
41.3756 46.2188 596.238
44.8872 42.9402 596.423
46.9452 42.8374 596.424
46.0184 42.8368 596.415
44.4479 49.1353 596.053
41.6717 48.9816 596.06
46.0192 42.5288 596.425
44.4741 42.836 596.404
45.3976 43.4509 596.37
41.0723 44.3728 596.315
43.5446 43.45 596.358
44.0073 43.4496 596.353
45.0634 49.1336 596.032
46.4825 42.066 596.429
41.6733 48.0579 596.082
42.613 44.3702 596.28
47.2176 49.8993 595.965
40.75 47.135 596.116
41.9979 43.6009 596.31
41.057 47.1331 596.093
43.0738 44.0594 596.25
41.0641 44.9812 596.196
47.4052 41.5998 596.385
40.7455 47.4383 596.051
44.1565 43.136 596.284
40.7551 44.6721 596.19
44.8742 43.5451 596.252
42.4374 48.0497 595.981
41.5161 46.9747 596.041
41.5135 47.5888 596.003
41.5092 48.6634 595.941
47.2275 46.0531 596.091
44.5964 48.0493 595.976
43.052 48.5097 595.948
46.4423 49.1238 595.913
43.2222 44.5162 596.168
42.434 48.6627 595.933
44.7664 44.0546 596.186
40.753 44.3612 596.159
45.6693 48.9675 595.888
43.5302 44.0528 596.16
48.1374 48.6598 595.896
43.9755 48.0449 595.922
45.9996 43.4364 596.172
46.9285 42.5136 596.212
44.7455 47.7354 595.908
47.5153 49.117 595.831
45.5359 43.127 596.16
41.0482 46.5061 595.965
45.3603 48.0416 595.88
45.3582 48.502 595.852
43.9701 48.5017 595.849
41.9811 44.5089 596.071
42.5912 46.1984 595.975
45.9744 48.5014 595.845
44.5864 48.5011 595.843
47.5418 42.8186 596.163
47.9767 48.9615 595.815
42.906 44.5083 596.063
40.7439 44.9684 596.027
43.5079 48.0395 595.854
46.2935 45.582 595.982
46.9132 44.9676 596.017
43.5169 45.5816 595.978
43.5269 43.1237 596.115
43.2078 45.581 595.969
45.9939 43.1225 596.097
47.0464 49.1104 595.751
45.0452 48.3429 595.792
45.3562 47.7289 595.827
41.5111 45.1181 595.968
42.3873 44.555 595.999
47.1286 42.097 596.14
42.4265 47.5748 595.828
43.8226 45.5788 595.941
46.2875 46.193 595.905
45.972 47.7279 595.814
47.834 45.1174 595.958
45.066 43.1202 596.067
43.8315 43.1199 596.061
45.5264 43.5808 596.036
47.5355 42.5044 596.083
43.2008 46.1905 595.873
43.1965 47.1111 595.814
43.5185 43.7324 596
43.0406 47.4176 595.79
43.1006 45.0623 595.909
44.4453 43.1168 596.019
41.0348 47.4161 595.771
42.4752 47.0063 595.789
41.9591 47.4151 595.759
43.5055 46.1866 595.823
43.4966 48.3354 595.7
43.5021 46.9539 595.776
41.9602 46.9538 595.775
43.9756 44.0353 595.924
44.1149 47.5663 595.722
47.824 45.5706 595.834
44.7341 46.7981 595.756
45.3494 46.9508 595.737
44.6405 44.4431 595.878
47.0351 49.0987 595.608
46.6014 42.4967 595.975
44.4353 44.0323 595.883
46.4948 43.0072 595.926
45.5132 44.0307 595.863
44.7326 46.1798 595.736
44.7378 44.9516 595.805
47.9549 49.5558 595.545
47.0594 42.9551 595.915
43.4886 48.6348 595.591
43.9714 43.7226 595.867
44.4346 43.569 595.875
44.1225 44.3364 595.825
41.96 45.1033 595.772
41.9559 46.0239 595.713
42.5706 46.4843 595.686
46.5789 46.4844 595.687
45.0489 43.7208 595.841
46.8871 46.4842 595.685
45.974 43.7206 595.839
46.9003 43.4132 595.853
47.2127 42.4916 595.903
43.5004 45.1019 595.753
42.5733 45.5622 595.724
46.3852 43.515 595.84
47.8199 44.4874 595.783
42.5746 45.1011 595.742
46.8938 44.6406 595.77
47.5221 42.0297 595.915
44.7303 45.5608 595.705
45.0279 48.016 595.563
46.2733 44.9454 595.722
44.515 47.5032 595.575
45.9688 44.024 595.771
41.3331 46.4796 595.625
45.9662 44.4841 595.738
46.2724 44.6362 595.711
43.0217 47.7049 595.528
45.5018 44.3281 595.714
42.869 47.0901 595.549
46.2627 46.4764 595.585
43.7919 47.5504 595.523
43.0241 46.6288 595.562
47.1896 45.5537 595.612
42.5634 45.86 595.586
42.8729 45.553 595.603
45.6369 48.0081 595.465
45.0176 48.6214 595.426
42.2585 44.9387 595.633
46.2643 45.2449 595.606
46.2692 44.0165 595.67
45.5348 47.4951 595.473
41.4811 46.0104 595.538
45.638 47.0846 595.479
43.4907 44.4752 595.619
45.6311 48.4643 595.389
44.5088 46.5719 595.492
45.4927 44.6275 595.594
42.9695 45.9574 595.517
47.9379 49.2301 595.334
46.9655 48.4119 595.377
46.0941 48.0028 595.399
46.4009 48.3096 595.382
47.7952 46.622 595.475
43.0114 48.0018 595.386
43.9397 47.0813 595.438
46.8825 43.7051 595.628
46.2565 45.8538 595.506
46.0949 47.5414 595.41
43.9478 45.0863 595.547
42.1428 46.5687 595.451
45.015 47.5401 595.393
42.0951 45.5453 595.503
45.481 46.6193 595.441
47.7875 47.6931 595.38
42.8664 45.2378 595.512
42.2457 46.1579 595.453
44.5534 47.0784 595.401
46.2416 48.6122 595.314
43.4721 47.5378 595.365
47.02 46.6174 595.417
45.6457 43.7015 595.579
43.9399 46.0028 595.44
43.9369 46.616 595.399
46.8579 47.996 595.315
43.8935 44.5183 595.508
47.4738 47.9956 595.31
47.779 48.6089 595.274
47.4822 46.0009 595.415
47.4953 43.085 595.579
45.0118 47.0744 595.35
47.4708 48.3007 595.273
44.5054 45.13 595.445
46.0392 46.6637 595.353
44.5522 45.9987 595.386
46.8643 45.8453 595.395
43.4736 45.8445 595.385
45.0131 46.1513 595.367
45.3219 45.9979 595.376
46.4588 44.4124 595.465
41.6267 45.2304 595.415
45.9328 47.0709 595.306
42.2424 45.2298 595.407
45.0145 45.5364 595.386
44.0899 45.5363 595.384
45.0177 44.461 595.429
45.0076 46.7619 595.294
46.8528 47.5286 595.249
43.4673 46.4541 595.298
45.32 45.5336 595.35
45.0183 43.9992 595.436
46.8667 43.9985 595.427
45.3203 45.0717 595.354
46.5582 43.69 595.422
44.3965 44.6102 595.364
47.1513 48.5971 595.129
47.7743 47.0637 595.215
47.1759 43.0748 595.439
47.1663 45.069 595.318
41.3088 45.528 595.276
45.0087 44.9143 595.309
46.5357 47.9815 595.135
47.4702 45.5271 595.265
46.5519 43.9923 595.342
47.7753 45.9864 595.227
47.7654 48.1331 595.104
46.8564 44.2969 595.295
46.5364 46.75 595.143
47.1462 47.9758 595.064
47.4552 47.6688 595.076
47.4501 48.5876 595.013
47.1499 46.7474 595.111
44.9933 46.439 595.105
46.2226 47.0522 595.07
41.6038 46.4376 595.088
46.8369 47.0505 595.048
41.6049 45.8228 595.104
47.4664 43.675 595.217
46.5246 47.5081 594.993
46.2168 47.3543 594.995
46.5188 48.5799 594.918
44.9894 45.819 595.054
42.2172 45.8188 595.051
44.9901 45.2037 595.063
45.6026 45.0462 595.018
47.4571 43.3584 595.1
44.3636 45.8088 594.922
45.9065 45.0422 594.965
47.1449 43.5085 595.048
41.5924 45.5011 594.925
45.591 46.4203 594.866
46.5109 47.0323 594.818
47.4423 45.0385 594.915
47.1196 47.6409 594.728
47.1319 44.5742 594.884
47.4419 44.1142 594.91
47.1337 44.114 594.907
47.1131 47.3266 594.647
45.8859 46.0994 594.698
46.8112 45.4855 594.721
46.8112 45.1777 594.721
45.5713 46.0925 594.609
47.4148 46.5511 594.57
47.5629 47.3147 594.497
47.0995 47.0051 594.474
44.3338 45.4703 594.522
47.4075 44.5439 594.478
45.5473 45.6068 594.296
47.3833 46.9815 594.175
45.8252 45.5772 593.91
-67.1163 -61.9515 597.744
-66.5532 -61.7162 595.474
-43.7451 -89.7639 595.474
-36.5479 -89.6668 588.765
3.06069 -99.7652 587.217
-36.1076 -89.3313 586.562
-81.0413 -56.6338 584.376
-30.2535 -90.2903 584.907
-57.8379 -75.1071 582.205
-96.5971 -24.8983 577.913
