ply
format ascii 1.0
comment Created by Open3D
element vertex 1961
property double x
property double y
property double z
end_header
46.3451 -13.0729 433.307
46.5555 -11.4479 433.336
39.8406 -22.8176 433.56
-4.21095 1.22497 435.966
2.67843 -2.38916 435.974
43.78 -17.825 433.421
43.1936 12.5608 433.665
14.5968 9.60372 435.647
-5.34037 -1.71148 435.967
15.263 -44.285 433.486
45.1898 -16.0716 433.374
12.7251 -5.54924 435.801
11.4785 -14.7255 435.624
-5.65523 10.6642 435.858
14.0668 -18.8534 435.391
7.31815 17.4895 435.614
16.9878 -22.8984 435.094
-8.94923 14.0355 435.71
-9.11511 0.482597 435.933
45.1427 15.0659 433.424
45.4397 -14.8377 433.401
41.4185 3.34555 434.048
-10.6453 8.11175 435.829
14.5834 -39.7591 433.974
13.052 12.5102 435.66
16.4687 -45.91 433.299
-3.90887 11.5376 435.87
43.2435 -22.0073 433.332
38.4569 -23.2755 433.719
46.2833 15.2865 433.31
-0.14517 17.9282 435.677
38.4466 6.17083 434.308
32.5593 -24.9389 434.119
-4.32016 19.6178 435.6
14.9071 5.00013 435.78
46.273 -16.0199 433.306
47.019 -6.71745 433.47
-5.84426 18.2658 435.65
12.9424 18.1467 435.505
44.5667 -18.8821 433.381
47.0169 -8.55121 433.45
41.7738 12.4757 433.892
17.5306 13.6719 435.515
37.2422 -23.4251 433.866
12.1112 14.0913 435.696
-4.59252 12.2912 435.895
43.0549 -23.446 433.329
42.2129 -25.2743 433.316
9.22596 -12.3241 435.832
40.3892 11.9976 434.071
45.8943 14.44 433.453
15.325 -29.9429 434.82
47.0184 -10.0113 433.464
10.6332 -1.42116 435.994
8.57234 -11.7837 435.885
-9.6671 12.5156 435.842
13.4815 -2.61469 435.919
17.3678 -46.2756 433.327
43.0861 1.86588 434.005
41.024 4.36951 434.198
13.0623 13.867 435.74
14.4745 16.7462 435.595
46.0257 -17.2054 433.381
14.3196 -41.5238 433.942
-5.61327 3.89156 436.107
13.6671 17.5186 435.595
42.1272 -26.5732 433.315
44.2269 -20.6215 433.436
19.0445 4.76124 435.733
13.7008 3.12242 435.95
15.8493 -43.0913 433.754
12.4995 13.1917 435.802
47.6529 -14.5227 433.327
16.5574 14.4502 435.63
35.7825 -23.8701 434.065
13.6504 11.0579 435.848
42.8145 -25.0434 433.38
5.95485 -9.95821 436.057
40.1755 -21.6209 433.819
46.7116 16.4122 433.395
19.9214 -22.9019 435.161
17.6721 3.5734 435.846
16.8079 -46.9444 433.363
38.8685 -22.1886 433.921
12.0473 -15.4836 435.784
12.2697 18.6046 435.658
44.4113 12.9055 433.773
17.8331 -47.4421 433.281
-10.4237 9.86566 436.003
44.1734 -21.6147 433.462
43.6613 -20.3476 433.58
47.3964 15.9963 433.373
15.8263 15.1637 435.7
42.092 -28.017 433.312
-2.81819 15.2301 435.978
10.846 -13.9822 435.898
12.3911 -10.9724 435.964
22.5815 101.412 423.733
44.4578 -17.1222 433.681
47.6367 -13.6048 433.47
42.7658 -26.5581 433.383
13.7341 -38.4901 434.382
42.6617 -27.8686 433.315
19.2126 12.2859 435.708
13.7565 -37.1902 434.499
14.2179 2.35489 436.068
47.5107 -15.7427 433.426
41.4653 -20.159 433.874
25.128 8.26418 435.523
44.6849 14.2141 433.803
-2.63166 -6.45956 436.276
15.1311 8.05841 436
42.6548 -29.6349 433.244
42.8994 -23.4487 433.599
42.055 -29.4758 433.315
10.8467 16.0563 435.927
47.0216 -16.7499 433.493
47.9327 16.8179 433.394
15.2377 15.8451 435.815
18.8494 -48.04 433.321
18.2199 13.0413 435.81
49.1087 -14.1586 433.384
26.7667 -28.2349 434.653
23.7751 -28.3401 434.825
42.0718 -30.9438 433.284
42.6373 -31.1494 433.219
43.5599 -22.0379 433.688
43.4188 13.8132 434.043
45.0445 -19.154 433.68
49.6278 -13.2462 433.409
14.6607 -43.1218 434.061
15.0225 -22.0464 435.633
25.0897 9.07889 435.643
13.7465 -35.8716 434.774
25.2698 -28.2158 434.822
15.6428 -27.7584 435.304
13.8252 -34.6042 434.888
15.6462 -26.411 435.401
-2.63283 -1.9396 436.471
34.6316 -24.1581 434.438
50.1522 -13.8263 433.375
21.8855 -30.6719 434.864
15.6485 -25.6253 435.465
22.8881 7.09583 435.841
42.8691 -18.7265 433.989
19.2423 -48.9495 433.323
22.5327 -29.5267 434.924
49.0648 17.2091 433.402
15.6034 -41.9742 434.209
42.2039 -32.3761 433.263
46.225 -5.52677 434.029
50.6899 -12.7598 433.378
13.0697 -16.9595 435.995
33.2223 10.0153 435.142
18.2698 -48.635 433.422
41.7634 -21.992 433.969
21.3052 -31.5838 434.872
49.1279 17.9626 433.393
12.2866 -9.96278 436.258
40.7267 -20.7115 434.148
42.112 -19.4462 434.077
42.6238 3.0215 434.453
37.8846 -22.6323 434.314
45.6087 -13.8444 433.941
23.143 -29.0519 434.972
13.6732 -39.7261 434.534
48.3217 -14.3163 433.643
20.4469 -49.4748 433.268
46.227 15.6631 433.828
-58.3154 107.978 418.969
47.1619 -7.27967 433.957
47.8536 -15.8293 433.654
15.061 -44.5012 434.044
46.2088 -17.6597 433.77
20.6169 -32.5439 434.885
35.0192 10.4642 435.059
43.0503 -24.7608 433.76
46.1545 -11.5076 434
41.9927 2.15392 434.579
42.8536 -32.5314 433.287
46.2254 14.3994 433.925
51.238 -11.8074 433.442
44.5691 -20.3407 433.868
20.1336 -33.4767 434.875
28.2059 -28.3004 434.794
18.251 -36.0955 434.756
47.2293 -10.0228 433.957
46.1451 -4.07886 434.17
46.3403 -10.1148 434.056
45.5997 -18.5624 433.856
0.985087 17.9528 436.273
42.3042 -33.823 433.277
16.2741 -44.3018 434.093
26.2269 100.621 424.102
52.2321 -11.6637 433.374
19.6389 -34.1318 434.897
15.3981 6.31306 436.361
42.8185 -26.5366 433.765
15.9635 -46.0612 433.954
19.0932 -22.3033 435.702
-6.93162 5.97718 436.603
45.185 -14.7148 434.108
17.4952 -47.9926 433.705
17.281 -45.6607 433.966
-6.70067 17.502 436.302
45.0045 15.2099 434.116
51.6898 -12.347 433.465
14.4252 -20.3479 435.999
52.8463 -10.6827 433.372
44.6176 -16.0309 434.143
-3.08653 -6.23916 436.671
-7.37963 16.7125 436.347
43.5381 -17.6239 434.197
47.5805 15.535 433.853
50.865 18.3749 433.371
29.8687 -28.4209 434.783
18.7817 -35.6394 434.873
42.931 -34.1083 433.282
49.0913 -14.6914 433.722
17.8941 -36.98 434.815
44.1494 -21.9394 433.961
46.3372 -6.9693 434.239
47.6627 17.0309 433.817
2.3419 17.9579 436.397
11.7311 -0.582944 436.615
-3.87916 0.208863 436.757
19.6941 -49.9874 433.465
46.238 -8.54106 434.249
15.4351 -24.9309 435.809
-3.08606 12.5373 436.604
31.2134 -28.4471 434.75
42.786 -27.8506 433.814
49.2026 17.1349 433.69
-2.40849 -2.50686 436.797
20.8734 -50.3835 433.395
15.4322 -26.6341 435.728
50.7028 -13.0942 433.666
46.0137 -12.8301 434.196
38.1803 5.0551 435.119
53.8311 -10.483 433.366
22.0951 -50.852 433.298
47.0918 -11.4328 434.141
14.2325 -33.9595 435.287
39.4007 11.8125 434.905
47.2904 -8.64612 434.194
15.1693 -23.3957 435.959
53.5384 -11.1726 433.414
-5.35071 2.92471 436.812
-5.34898 11.6342 436.671
48.6363 -15.4158 433.872
47.1069 -6.09239 434.28
15.9139 4.61943 436.557
32.773 -28.4979 434.714
42.7824 -29.5716 433.779
17.5972 -38.5145 434.835
-11.0054 8.01453 436.682
18.0396 -39.8296 434.71
13.4302 0.774509 436.698
-2.40742 16.1567 436.603
14.4471 3.48921 436.658
37.5084 11.1434 435.171
13.8216 -41.1277 434.773
18.6226 -40.4043 434.665
43.2421 -35.5339 433.338
45.3361 -4.29532 434.56
6.64344 -10.5401 436.764
42.4201 13.3827 434.672
43.3093 -36.9465 433.218
15.3816 -45.4708 434.3
17.2485 -23.3968 435.986
19.2881 -49.0479 433.764
54.719 -10.9824 433.384
41.807 -26.4481 434.155
50.4133 17.6217 433.689
48.0845 -13.432 434.109
21.4135 -51.3293 433.418
-0.371582 16.3854 436.672
52.1643 18.7633 433.458
22.5191 -51.5323 433.355
52.0316 19.4832 433.444
25.2094 -27.9655 435.37
46.5534 16.6861 434.189
32.076 -28.7457 434.885
31.6285 -28.7485 434.927
52.2288 -11.3234 433.749
-0.824077 17.9692 436.673
23.3229 -51.1062 433.43
26.5473 -27.9124 435.361
42.2562 -23.5357 434.378
55.3362 -10.1901 433.428
49.2108 -12.8868 434.103
41.6527 -27.9197 434.188
18.9757 -41.4527 434.7
-6.33448 -3.82914 437.027
49.4218 18.2838 433.91
34.2052 -28.5561 434.825
52.1287 -12.4914 433.805
41.9857 -24.8409 434.374
53.8184 -11.4451 433.638
10.1536 -10.5427 436.873
34.6074 -29.1071 434.776
16.6731 -47.349 434.242
42.9627 -32.7632 433.784
50.6095 18.6337 433.802
15.4411 -27.9142 435.978
15.2422 10.505 436.753
31.1895 -28.7592 435.09
23.7635 -51.9196 433.409
41.5732 -29.557 434.169
-3.36499 -1.0367 437.145
18.8624 -47.7593 434.137
18.3305 -40.9106 434.859
23.6978 -27.974 435.63
-6.61865 4.98357 437.095
52.0219 18.576 433.674
15.2776 -29.427 435.919
35.4833 -29.5307 434.735
53.8069 18.9462 433.449
45.3628 4.15044 434.816
42.9308 -31.0307 433.98
14.6553 -32.4153 435.752
9.81879 -2.05554 437.088
45.1397 5.10015 434.838
43.3888 -38.4746 433.342
12.8109 1.93252 437.017
23.1766 -29.4704 435.604
18.9288 -35.2698 435.379
20.2105 -43.4071 434.589
25.2513 -52.2517 433.353
45.9924 3.42071 434.784
12.5343 -5.225 437.014
50.7925 -11.7327 434.106
11.8478 16.6147 436.75
20.3869 -33.5224 435.471
20.5339 -50.6119 433.812
18.5756 -36.4433 435.324
54.0121 19.4733 433.46
14.873 -31.1828 435.881
56.7204 -9.82172 433.446
43.2706 -33.9175 433.791
37.0494 -23.1228 435.076
-9.88488 1.45482 437.157
50.4648 -13.8505 434.132
46.6504 2.03255 434.778
-5.89604 3.61573 437.227
22.2698 -29.5623 435.714
45.5944 4.48902 434.877
13.4352 13.9025 436.857
-4.97293 1.97801 437.255
55.1558 19.0795 433.394
29.7822 -28.0645 435.387
-8.18748 -1.60316 437.228
20.6758 -32.4053 435.619
22.0218 -30.7391 435.675
16.6066 8.01905 436.928
57.3474 -9.11263 433.45
47.5313 0.492156 434.732
45.262 6.2923 434.93
11.6121 0.487087 437.173
45.6698 7.00506 434.88
43.4029 -39.9161 433.337
19.6414 -42.856 434.786
-4.75239 -5.19062 437.281
48.1972 17.9468 434.307
11.2492 15.0747 436.937
16.8363 2.47315 437.014
25.5657 -52.8967 433.381
53.5245 18.8085 433.668
-8.88431 -0.680995 437.275
-5.35202 19.1112 436.919
31.208 -28.0997 435.35
-5.98657 10.9363 437.195
19.9011 -43.8253 434.717
36.1241 -30.8609 434.791
-7.5191 6.3777 437.274
26.7515 -52.4002 433.411
-3.71269 14.4212 437.134
19.5036 -50.0986 434.074
-4.81523 12.6933 437.181
22.2907 -51.8539 433.736
43.0308 -35.4376 433.827
-8.04443 8.11547 437.246
55.3633 -10.9166 433.74
21.1534 -31.1826 435.774
14.2827 9.21854 437.069
46.9461 1.10923 434.874
-10.4506 11.3068 437.132
55.3997 19.6327 433.44
10.5594 -1.03697 437.281
15.4277 -36.6921 435.599
58.156 -9.61309 433.425
22.7406 -28.4362 435.899
41.7608 -32.5047 434.205
47.2446 1.52229 434.857
58.3701 -8.91953 433.421
-2.0026 16.9901 437.091
20.668 -44.5329 434.663
-4.3295 0.653556 437.405
-2.80047 -2.23525 437.413
28.2558 -27.9292 435.622
36.6615 -31.485 434.753
38.859 -21.9993 435.146
-6.85162 9.7473 437.271
12.8303 12.3016 437.073
19.3462 -34.0683 435.677
46.3346 7.94092 434.903
-10.8844 4.944 437.273
41.5848 -31.0411 434.35
22.2567 -50.573 433.936
42.469 13.6236 435.174
-10.8377 9.70027 437.211
8.46242 -12.0233 437.209
56.7282 -9.87521 433.652
48.1769 -0.833898 434.799
48.7336 -1.39695 434.741
41.5046 12.9512 435.305
26.8709 -52.992 433.426
13.486 -38.4505 435.579
28.1641 -53.0415 433.341
35.0262 -28.5374 435.145
28.1124 -52.5261 433.411
7.89703 -11.4585 437.268
15.1816 6.55889 437.186
43.1074 -41.51 433.389
20.6286 -49.2879 434.229
56.7775 19.0689 433.385
-11.06 6.21396 437.342
52.3612 19.6406 433.942
12.795 -4.00797 437.331
-9.5351 0.484355 437.434
13.4997 3.46949 437.32
38.6807 11.6078 435.677
29.8028 -52.4736 433.364
13.2839 11.0499 437.206
-9.43343 14.1404 437.217
9.97303 -13.3453 437.231
18.3511 4.4747 437.142
40.321 12.3556 435.517
13.443 -37.0358 435.781
-3.15888 15.4114 437.279
14.4681 5.0352 437.294
55.1297 18.8193 433.671
49.6331 -3.63138 434.728
52.5897 -10.5642 434.267
42.2097 -43.2132 433.38
32.7937 -28.1053 435.437
53.8229 -10.0267 434.135
14.8066 8.04769 437.256
49.1169 -2.45785 434.811
21.792 -46.4476 434.567
42.9665 -42.7725 433.369
17.4839 -38.7727 435.522
47.5348 9.69437 434.901
37.1325 -32.504 434.808
59.9881 -8.737 433.383
-7.65473 -2.45448 437.529
46.9576 9.22285 434.981
17.865 -48.8966 434.498
55.253 -9.5738 433.999
17.5037 -36.9874 435.697
21.2663 -45.8197 434.692
59.6654 -9.44908 433.431
56.8511 19.5842 433.471
12.1276 -11.2331 437.319
18.8033 -40.2822 435.373
24.1737 -51.613 433.917
37.7559 -22.6902 435.425
25.0657 -51.8809 433.843
11.2948 -15.0826 437.247
58.2251 -9.7268 433.654
56.0238 19.0799 433.634
5.06821 -9.65168 437.525
-7.43186 9.1631 437.507
13.6675 -35.3722 436.021
-4.22511 13.8239 437.429
-1.27844 17.8818 437.301
10.6393 -14.1784 437.311
13.1818 -2.62404 437.466
51.1521 19.444 434.24
-7.1689 17.3144 437.278
16.7586 2.99644 437.352
46.0763 -8.32219 435.172
41.9089 -44.5031 433.397
48.1207 10.7759 434.901
26.9836 -53.1498 433.614
50.4947 -4.3534 434.753
29.7443 -53.1287 433.442
12.2413 12.9736 437.336
10.7043 15.779 437.285
12.2236 -6.93075 437.476
37.74 -33.6938 434.769
38.217 -34.3251 434.682
40.5118 -20.5993 435.341
34.2391 -28.1969 435.458
18.1127 -35.7249 435.875
58.2536 18.9715 433.404
14.3052 16.5852 437.166
44.1405 -37.4459 433.874
11.6857 13.9503 437.34
12.0942 -8.47184 437.476
12.0934 -9.87664 437.447
41.9935 -33.958 434.383
50.9838 -4.85989 434.721
15.3217 -38.1753 435.791
31.3531 -52.3584 433.456
41.1743 2.80499 435.789
-10.575 3.3832 437.599
58.1224 19.5871 433.423
45.6245 -12.9816 435.164
13.8431 -42.5455 435.45
12.248 1.6075 437.575
31.866 -25.1407 435.865
41.5667 -45.7369 433.372
34.3638 -50.9559 433.426
15.4303 -39.8586 435.674
48.5284 11.3623 434.92
13.8308 9.80367 437.441
40.6566 -46.4319 433.399
28.7595 -53.2197 433.573
42.6007 -44.1471 433.455
-10.2326 11.9963 437.496
40.2829 3.53991 435.917
-6.04262 -0.584453 437.75
17.6453 3.8354 437.421
39.0389 -48.1074 433.389
42.8533 -36.9987 434.121
31.576 -52.9594 433.434
12.5438 15.5044 437.346
32.6089 -52.3169 433.443
20.5848 6.09974 437.285
56.6213 19.833 433.683
61.3838 -8.4789 433.408
21.547 -31.9907 436.119
41.7794 2.12764 435.82
-4.90424 19.5838 437.361
-59.3017 109.281 419.805
43.0175 -38.5816 434.006
17.866 13.123 437.276
32.194 -52.9038 433.439
49.2185 12.4708 434.891
53.7091 19.8533 434.085
22.308 -47.4955 434.692
19.8769 -32.9431 436.164
19.0049 5.02517 437.42
55.0639 19.9782 433.927
45.9909 -3.85252 435.428
34.171 -51.9781 433.427
29.6364 -53.1258 433.622
23.4792 -51.0896 434.244
15.2462 -25.4814 436.866
43.3908 -17.4241 435.374
37.6602 -49.3877 433.458
45.4152 -13.4373 435.318
17.6402 -39.99 435.701
36.0017 -50.6487 433.46
26.7401 -52.1001 433.96
38.7831 -48.9533 433.429
12.3271 -5.68676 437.697
-4.00268 -0.357765 437.892
15.0876 15.6311 437.372
58.2695 -8.69343 433.931
56.8417 -8.96597 434.121
43.1341 -41.4056 433.822
39.962 -47.6476 433.486
-6.19048 18.3806 437.495
-10.3077 2.13738 437.799
62.6506 -8.21233 433.345
16.797 -37.516 435.995
42.8587 -43.0344 433.698
37.2838 -50.2832 433.434
16.7811 -38.3806 435.929
18.9789 -41.8192 435.524
13.4694 -40.3612 435.877
8.98175 -12.5464 437.681
-7.17846 5.54068 437.861
59.8529 18.9338 433.433
44.8765 5.08461 435.622
17.0864 2.13657 437.621
38.6599 -35.4428 434.809
59.7023 -8.59518 433.789
12.8287 17.9994 437.406
24.9402 8.41998 437.177
13.8737 -34.2734 436.413
59.7419 19.558 433.443
35.6234 -51.5069 433.496
38.1493 -49.7652 433.486
42.1507 -19.0861 435.548
49.8823 13.6162 434.937
14.3539 -20.8227 437.271
34.3909 -29.3842 435.663
50.4626 14.2897 434.858
52.2615 -4.6361 434.857
44.1611 -38.5877 434.076
46.0307 -6.98465 435.54
42.8948 -40.0204 434.081
58.833 19.1925 433.64
13.6524 -41.5456 435.849
10.9715 -0.130889 437.9
59.8693 -9.64489 433.822
62.9313 -7.48417 433.433
20.3844 -43.3318 435.417
52.3222 -4.89386 434.88
31.202 -53.0701 433.697
24.8501 9.00665 437.252
21.4926 -46.7857 435.019
11.9166 -15.8209 437.612
35.4823 -29.7605 435.606
42.3536 -35.4233 434.569
23.4528 -48.0008 434.796
46.201 8.00323 435.552
13.5688 17.286 437.518
14.152 -43.2473 435.701
41.5735 -45.9668 433.673
44.9753 6.49185 435.719
23.1531 -27.9529 436.58
34.1147 -51.6565 433.7
13.9196 4.40633 437.857
16.7439 14.0383 437.557
39.2789 -36.6249 434.803
51.2028 15.2108 434.843
31.3168 -52.0984 433.874
45.8905 -11.5824 435.548
35.7523 -50.467 433.727
63.9948 -7.76334 433.348
23.7659 -48.4659 434.782
22.6556 -48.4342 434.845
21.0205 -51.4669 434.58
61.255 18.584 433.423
-8.08721 10.3064 437.931
25.3084 -48.108 434.747
43.3166 14.2065 435.76
46.0646 -10.0321 435.595
46.3388 2.12699 435.684
14.5643 -44.3711 435.653
45.3024 3.86934 435.784
45.9055 6.61922 435.69
44.993 -14.6872 435.598
15.8397 14.8343 437.632
17.3129 13.549 437.618
47.4865 9.7144 435.481
52.174 15.2822 434.785
55.9104 -9.1347 434.499
35.6421 -51.6442 433.662
13.0434 -17.5148 437.637
-5.59211 11.8964 437.993
18.1753 -41.2313 435.868
12.5539 -16.5723 437.698
61.0593 -8.33922 433.838
64.3009 -6.97825 433.393
53.7047 -4.97417 434.868
32.8911 -52.9413 433.746
37.0922 -50.3997 433.716
39.73 -37.3013 434.809
45.4677 -4.64638 435.822
25.3236 -48.5356 434.78
47.331 1.90121 435.652
45.9666 3.20638 435.794
62.5444 18.219 433.359
28.4452 -52.258 434.181
45.7377 -5.36881 435.813
48.9314 -1.14576 435.497
58.3645 19.9184 433.878
14.9793 -23.8661 437.334
32.799 -51.8738 433.925
14.5662 -31.9303 436.838
53.3408 -4.63722 434.962
60.8908 -9.3468 433.895
19.1943 -42.9028 435.719
48.7409 11.342 435.381
36.8658 -31.3486 435.57
41.5976 -26.0782 435.493
42.7718 -44.3722 433.899
62.6274 -8.19828 433.679
39.7192 -21.3612 435.928
14.8517 -30.8046 436.919
20.3558 -44.7098 435.497
-4.45971 4.40993 438.215
40.2717 -47.4224 433.823
61.7796 -7.54706 433.821
15.6502 -46.5001 435.51
28.5702 -48.1006 434.681
52.2693 -5.08967 435.11
51.7018 -10.9502 435.077
35.89 -30.8745 435.713
13.6865 -18.9518 437.658
18.4352 -22.1104 437.344
62.8067 17.573 433.412
29.7736 -52.1486 434.165
26.7465 -48.5905 434.781
59.6955 19.6485 433.785
45.7652 5.06443 435.89
41.9538 -23.3803 435.678
41.7336 -22.7063 435.735
-2.64208 16.4354 438.003
48.9872 -2.67716 435.566
-11.2679 8.72132 438.09
47.4689 0.230984 435.746
41.6741 -25.2477 435.62
26.8176 -48.1213 434.867
59.8709 18.6288 433.835
41.4913 -44.4645 434.11
38.3532 -50.0256 433.796
38.32 -48.8237 433.937
64.7661 -6.19387 433.501
44.1876 -39.5113 434.337
11.9904 18.5836 437.823
40.2281 -38.4639 434.836
41.9407 -43.0402 434.246
55.3224 -5.01627 434.855
28.3048 -48.5221 434.777
44.5098 -15.8805 435.838
53.6992 15.3023 434.823
-6.27801 -0.358138 438.349
36.9146 -32.676 435.615
46.6706 9.14639 435.81
65.9222 -5.81212 433.378
63.957 17.8323 433.346
41.2977 -46.9674 433.921
47.8776 -1.03328 435.782
39.3868 -40.6751 434.751
21.9084 -46.098 435.442
46.8008 0.934404 435.92
39.7753 -48.6886 433.899
49.8257 -12.087 435.427
41.2396 -29.6692 435.486
51.1119 -4.41646 435.429
15.1705 -27.8175 437.298
65.5482 -6.53036 433.474
64.3809 17.1127 433.365
18.572 -49.741 435.24
14.1558 8.94945 438.147
45.416 7.40043 436.048
50.1806 -4.86938 435.571
16.8125 -39.2463 436.395
38.9815 -47.7202 434.133
15.9027 -41.2673 436.248
50.1364 19.2609 435.186
40.1812 -39.9302 434.815
40.4789 -45.9017 434.2
47.8853 10.8869 435.735
61.3115 18.567 433.789
18.8954 -22.572 437.507
14.5945 -22.3542 437.685
36.7267 -51.3896 433.927
49.1269 -12.542 435.564
42.1765 -41.6572 434.484
34.3223 -50.8416 434.199
15.0336 -29.4134 437.271
50.5406 14.2161 435.366
-6.27987 -0.131062 438.479
52.6226 -10.3905 435.236
37.2272 -49.1599 434.179
49.1236 12.5967 435.595
29.8313 -48.5671 434.825
23.9805 -48.719 435.174
66.8836 -5.21395 433.396
38.4023 -42.6568 434.797
42.4505 -36.5276 434.984
65.5615 16.5334 433.35
62.8461 -7.14266 434.009
63.8452 -7.92237 433.857
54.4199 -5.31598 435.182
47.1788 8.45341 435.984
54.6431 -5.31576 435.164
19.8149 -44.3136 435.92
64.2473 -6.92009 433.831
27.0199 -48.3729 435.104
56.6747 -5.0354 434.917
41.2551 -28.1066 435.776
39.5154 -40.9168 434.926
12.6509 2.51921 438.441
36.3554 -32.0684 435.945
-9.85902 0.777767 438.525
49.4693 -3.94389 435.823
29.8292 -48.1336 434.978
25.2785 -48.7222 435.203
37.8434 -43.2103 434.875
31.277 -48.6854 434.822
13.2853 -36.9518 436.895
21.8516 -29.4034 437.127
55.2188 15.2622 434.917
42.3358 -38.1033 434.963
37.494 -34.028 435.754
40.6442 -45.0607 434.468
15.3284 -46.1557 435.983
65.9079 15.7098 433.428
50.5912 -11.5958 435.611
39.0057 -41.5664 434.986
48.2724 18.2661 435.66
67.2737 -4.32213 433.498
-5.28265 1.77802 438.674
68.3972 -3.59351 433.332
33.393 -51.2241 434.43
41.2755 -31.0094 435.666
27.9778 -48.7669 435.1
43.9248 -16.6284 436.197
46.0488 16.6983 435.978
-6.87323 4.7324 438.649
67.0208 15.2306 433.315
32.7107 -48.7025 434.796
42.2879 -40.1218 434.857
36.3583 -45.1955 434.898
28.1303 -48.1571 435.191
36.9896 -44.6777 434.903
58.2378 -5.10081 434.858
21.8303 -47.6719 435.626
23.8226 -47.94 435.495
49.7326 13.9091 435.724
36.0918 -46.0547 434.855
60.9182 19.4936 434.09
-3.62093 -1.33287 438.762
52.3158 -4.45085 435.632
53.7774 -4.56722 435.459
68.4941 -2.78678 433.404
20.7446 -46.0378 435.881
12.5757 11.9091 438.459
-6.96389 10.0957 438.635
55.7694 -9.1485 435.156
35.8051 -49.2138 434.57
19.6563 -32.8426 437.146
38.54 -34.1865 435.787
21.377 -30.1489 437.265
57.1103 -4.86373 435.065
19.4961 -48.2171 435.734
52.2507 15.6338 435.425
65.4942 -6.75086 433.861
-7.96022 -2.51821 438.751
34.7532 -47.8021 434.833
16.1934 -47.4143 435.964
20.8852 -30.9406 437.246
56.7592 15.1714 434.888
15.0525 -25.8771 437.817
14.1649 12.8168 438.427
67.4356 14.2417 433.399
48.3854 -2.10784 436.17
-5.24325 12.6932 438.638
62.9806 18.5057 433.923
13.7902 -33.7802 437.348
50.7242 15.3009 435.658
38.7199 -35.7031 435.696
62.9981 17.327 433.983
54.4445 -9.60433 435.378
-10.5744 2.11357 438.742
68.3291 13.6961 433.306
-6.512 -4.07198 438.81
19.0747 -50.3423 435.564
39.8672 -37.096 435.487
12.647 -3.67022 438.681
9.39981 -9.90421 438.669
41.4672 -32.5373 435.705
20.1982 -32.0282 437.249
18.9813 -33.8796 437.167
34.1291 -48.6682 434.847
-6.2644 3.52742 438.833
35.4012 -47.2429 434.905
-11.25 9.512 438.655
36.592 -45.5439 434.998
65.7368 -5.50204 433.928
-7.87613 6.36098 438.813
11.4482 0.778338 438.78
22.4731 -28.4155 437.434
29.8445 -48.7783 435.201
17.4161 3.89431 438.584
48.3791 12.0149 436.113
70.7747 6.58093 433.16
53.8664 15.5094 435.365
25.1776 -47.9769 435.602
-9.03681 -1.04085 438.871
10.208 -1.00564 438.846
68.8675 12.4806 433.368
-5.66113 2.42724 438.943
-1.64603 17.9583 438.617
59.8063 -5.18065 434.864
64.2572 16.795 433.941
45.5501 -3.52373 436.612
-11.0275 3.66915 438.845
9.85461 -13.541 438.68
-3.04611 -2.46249 438.984
-7.27148 5.32654 438.91
67.0858 -5.3243 433.816
-4.69499 0.551058 438.98
13.1404 -38.7806 437.093
13.213 -39.8664 436.996
13.1728 3.48744 438.803
-4.0886 -0.586152 438.997
12.9145 -2.60692 438.824
58.1887 -4.97708 435.122
58.2969 15.0789 434.879
69.6754 11.8813 433.302
8.15197 -12.0667 438.79
-7.57388 9.4697 438.868
-9.76839 13.962 438.71
14.1613 -20.9104 438.315
-7.8764 11.237 438.828
-11.288 4.8713 438.873
64.6489 -5.97905 434.222
69.9457 10.7814 433.308
-6.41811 11.0295 438.864
39.6258 -41.179 435.315
55.2547 -4.64338 435.54
37.9195 -35.0324 436.011
69.3422 11.2228 433.403
20.5023 -23.7287 437.938
17.3615 -48.8854 435.988
18.1499 4.64178 438.665
31.652 -25.161 437.199
22.0964 -48.5275 435.817
69.3783 -1.25273 433.55
-3.41154 15.6379 438.781
14.2682 5.23455 438.81
21.26 -47.0637 436.028
-11.5155 6.57673 438.878
-5.26387 6.35132 439.002
71.1595 6.52946 433.226
26.6494 -48.0763 435.627
-2.23741 17.4174 438.731
14.5272 7.99082 438.769
42.125 -35.5328 435.615
12.1341 1.91563 438.917
11.9622 -6.89596 438.873
33.223 -48.3782 435.152
-10.1535 0.892193 438.979
66.9402 15.375 433.696
-10.5131 12.4639 438.798
-5.60547 -4.90816 439.039
18.0372 -35.307 437.312
49.5396 19.0661 435.887
69.9009 -0.739231 433.507
12.1589 -5.43729 438.907
35.148 -30.2203 436.658
70.2066 0.628378 433.463
70.3307 9.47505 433.344
65.5596 16.8584 433.869
63.8951 18.1432 434.069
15.0643 -24.8758 438.159
70.8094 3.57534 433.372
70.5814 8.01581 433.352
-6.64675 18.2807 438.714
70.7779 4.87447 433.376
12.6933 17.9347 438.595
40.1237 -38.5341 435.61
10.9934 14.6456 438.773
10.63 -14.5903 438.788
13.3045 -35.4938 437.523
34.2128 -48.6005 435.123
53.1028 20.1762 435.474
68.3322 -3.77586 433.802
67.3384 -3.92687 433.957
11.8597 -11.1365 438.867
17.2439 -36.5526 437.305
17.2876 -40.2892 436.977
41.6841 -33.9298 435.874
29.8653 -48.1916 435.502
61.2515 -5.07267 434.86
-11.0291 10.9466 438.907
16.6345 2.32457 438.862
14.8051 6.40646 438.887
70.7878 1.95568 433.437
16.5303 -37.1075 437.303
40.1078 -39.6637 435.549
59.724 15.0471 434.848
38.4545 -42.7451 435.416
11.7939 -8.50054 438.958
44.4328 5.00058 436.933
18.9828 5.29255 438.782
13.8416 4.64511 438.983
71.1215 7.81883 433.359
-4.56239 13.9512 438.981
11.827 -16.0195 438.776
12.9673 10.9357 438.902
10.8877 0.0962802 439.097
11.3854 13.9341 438.865
29.2784 -51.9872 435.165
71.0775 2.08405 433.443
71.1665 3.48841 433.421
38.7773 -41.4858 435.552
38.957 -36.9472 435.947
55.375 15.3416 435.474
-11.5194 8.05758 439.024
11.7944 -10.0249 438.977
10.4649 15.5959 438.859
19.7838 5.85545 438.777
41.0025 -29.3709 436.364
17.9836 -41.5956 436.926
12.1626 12.5186 438.924
61.9912 17.6554 434.517
8.95204 -12.8686 438.993
13.6513 9.57237 438.958
20.6374 6.39623 438.743
24.6177 9.06998 438.491
16.4461 -39.6562 437.176
65.8324 15.4718 434.054
17.3575 13.3566 438.746
12.3665 -4.3399 439.098
71.2702 5.02067 433.444
12.8115 -17.5344 438.757
-5.68194 12.1538 439.09
37.1749 -44.3828 435.467
46.0102 1.92705 436.88
62.1888 -4.93641 434.85
45.956 3.18943 436.884
59.7212 -4.97797 435.201
61.4914 -4.63723 434.963
31.4821 -48.4539 435.496
-2.76178 16.6999 438.99
50.0377 12.7544 436.291
-7.87843 17.0552 438.936
68.5766 13.8034 433.736
18.4455 -34.5924 437.589
21.078 -51.8332 435.767
68.7513 -2.42007 433.936
14.7746 15.7274 438.827
45.1395 -4.09302 437.016
62.4601 14.9583 434.646
16.3971 -38.4281 437.378
36.7035 -45.8525 435.43
42.1943 -38.614 435.639
66.2852 -4.54041 434.33
60.6175 -4.97751 435.16
16.4934 3.11868 439.081
13.4692 -19.0259 438.786
64.7752 16.072 434.315
31.6648 -25.8965 437.506
43.5541 14.5868 437.012
16.3115 14.223 438.887
42.3912 -40.1087 435.534
67.2359 13.9666 434.032
-10.1565 13.5192 439.108
-4.01432 14.8863 439.165
62.7684 -4.09592 434.911
61.2184 15.0668 434.891
63.3326 -2.88986 434.839
15.5452 14.8779 438.919
-8.9274 15.7023 439.079
18.2754 -49.8549 436.236
69.9443 -1.00646 433.856
-8.56828 6.69738 439.329
45.091 3.56856 437.133
35.4422 -47.3676 435.471
31.1587 -48.2146 435.711
67.8114 13.0477 434.017
61.2627 14.743 434.939
46.0455 6.09604 437.019
24.7203 8.55166 438.703
37.5559 -43.3622 435.723
42.5285 -37.8365 435.783
32.0466 -25.9752 437.559
34.7308 -29.9115 437.104
9.41544 -1.95261 439.399
13.3862 17.2297 438.966
44.6001 6.49057 437.194
17.8778 12.8893 438.961
42.2783 -36.9072 435.922
69.6477 -2.24331 433.969
18.7875 12.2069 438.959
71.309 5.07588 433.68
63.8736 -2.35494 434.879
56.7293 15.4428 435.602
32.9798 -48.1526 435.661
18.2611 -22.2879 438.608
14.403 -22.1064 438.764
36.4621 103.73 425.589
41.796 1.90975 437.571
48.632 -2.95989 436.863
45.6078 -5.62353 437.165
70.2141 0.526591 433.933
35.7919 -46.1126 435.687
69.1007 -1.09062 434.116
45.8842 8.44689 437.102
14.6743 -23.4074 438.72
62.9762 14.2488 434.826
71.1819 7.96027 433.727
34.2941 -47.661 435.664
68.5162 12.3775 434.056
58.1508 15.3536 435.473
39.4046 -37.9852 436.194
13.8235 -20.4034 438.923
41.6197 -42.9856 435.528
56.7145 -4.64744 435.921
41.0816 -27.9671 436.804
13.3407 -41.3833 437.474
38.7604 -34.2861 436.575
11.9437 18.4585 439.087
47.5859 -1.0363 437.057
66.3577 14.7235 434.363
46.6582 0.631071 437.167
50.7481 -11.4401 436.569
65.2403 10.5299 434.665
46.9527 10.2853 437.033
28.7453 -52.1173 435.626
18.8543 -43.2138 437.138
48.2338 -2.28156 437.016
42.2357 13.6942 437.428
-2.87989 1.69096 439.665
-11.5301 9.08963 439.435
66.6856 16.2964 434.3
32.0665 -24.6303 437.83
64.4558 -1.40699 434.943
70.324 1.91452 434.032
70.2231 11.143 433.911
35.4565 -31.0998 437.166
36.7997 -32.8652 436.93
62.3202 -4.97851 435.243
14.1891 16.3656 439.178
71.4816 6.38866 433.818
70.609 5.07925 433.982
12.3701 -16.9714 439.224
9.18324 19.8928 439.182
70.5174 6.50379 433.995
7.14111 -11.2902 439.538
40.4636 3.1966 437.873
45.2498 7.61154 437.354
-5.38636 1.46335 439.722
24.4179 9.19403 438.985
21.5704 -48.086 436.593
67.7672 -2.94384 434.503
69.9692 9.63314 434.06
20.6728 11.0178 439.152
39.5651 -46.9473 435.473
64.0546 12.632 434.909
47.0898 -0.130696 437.256
59.8646 15.3611 435.425
63.6323 13.3916 434.963
65.6311 9.60815 434.767
49.1034 -3.89491 437.032
-4.01981 3.96985 439.767
63.6612 -3.28655 435.16
69.1471 11.0064 434.215
36.1434 -32.2925 437.145
36.3954 -44.8599 436.018
71.361 2.0064 433.996
64.7491 11.1363 434.896
41.7369 -19.3495 437.426
14.2437 -44.4315 437.358
70.4331 3.51602 434.157
71.4228 3.50882 433.998
41.8038 -41.6276 435.879
19.508 -44.4906 437.169
32.6723 -51.3653 435.628
46.5047 9.49841 437.293
18.3474 -42.6012 437.411
65.6566 0.320636 434.937
65.3261 -0.355391 434.987
4.63418 20.5838 439.359
70.3146 7.88864 434.152
34.9841 -30.3876 437.438
71.153 1.10724 434.099
-6.98276 4.42612 439.824
38.4142 -35.8843 436.755
19.4093 -23.2111 438.875
33.7144 -50.8066 435.675
20.3724 -23.8326 438.804
18.617 -22.647 438.962
40.7206 -44.676 435.767
14.9714 -28.4336 438.768
14.7419 -29.6416 438.699
-0.146286 19.453 439.526
14.8627 -26.5102 438.909
-3.33758 2.83172 439.94
15.9341 -47.4634 437.106
66.1947 8.43205 434.876
64.994 10.2381 435.027
41.6627 -23.5843 437.362
-9.87023 -0.0555359 439.866
47.5536 11.0938 437.261
66.765 7.82437 434.817
45.8683 -9.19755 437.489
66.3369 1.6729 434.964
8.056 -12.2071 439.755
44.7304 15.6212 437.444
48.2305 12.198 437.182
-3.79384 -1.61333 439.985
41.4173 -25.0553 437.334
39.3118 -40.1528 436.418
71.1591 8.98007 434.136
35.9057 -49.2014 435.786
14.8111 -45.8103 437.387
37.3074 -48.8251 435.72
66.8099 2.09529 434.926
69.8335 12.2458 434.286
13.6873 -43.3304 437.682
67.5963 3.63214 434.803
62.6444 -3.81598 435.557
67.3295 6.52859 434.825
15.4866 -47.027 437.263
61.4252 -4.48116 435.73
61.2319 15.3395 435.522
49.8043 -4.88782 437.22
67.7954 5.10773 434.803
16.4082 -42.9896 437.675
58.7191 -4.64969 436.132
68.2182 4.82552 434.746
39.9094 -36.3382 436.772
35.8687 -49.8046 435.796
48.8937 13.2334 437.18
9.65176 -13.5754 439.793
20.2429 -45.9671 437.236
38.7257 -47.5655 435.822
37.0391 -33.9821 437.238
-5.38843 13.0875 439.891
65.0776 -0.671433 435.284
12.6079 17.8611 439.581
41.1565 -26.4191 437.4
39.6912 -35.893 436.862
44.3503 -15.6054 437.609
36.0835 103.247 426.327
43.2108 -17.4554 437.664
39.9691 -45.9776 435.906
14.2121 5.56632 439.887
41.1401 -43.957 436.025
31.2557 -51.6368 436.015
21.8625 -29.0717 438.672
44.8657 -14.4166 437.659
-6.53142 -4.35023 440.12
-8.15204 6.17651 440.072
22.3975 10.1158 439.507
40.2355 -20.7752 437.859
66.0351 -4.52706 435.203
21.6658 -48.508 436.997
65.3367 -5.31741 435.307
63.9225 -2.2431 435.545
33.1505 -51.1357 435.98
69.396 0.0390376 434.716
-2.4254 17.6447 439.864
13.6061 -33.8293 438.72
63.2764 -6.67547 435.615
41.081 -31.315 437.199
45.325 -12.8309 437.715
60.8001 17.9277 435.663
62.5061 15.1327 435.539
38.0291 -48.2434 435.971
-8.09118 -2.79244 440.199
-9.39388 -1.04378 440.193
9.65386 16.2783 439.889
20.6075 -31 438.728
68.2167 4.07685 434.976
49.3743 13.9424 437.312
48.3581 -13.05 437.457
34.9043 -46.7124 436.44
4.07275 -9.48261 440.2
-11.2643 3.28903 440.165
63.3779 13.1837 435.538
21.0045 -47.4314 437.261
69.4501 10.2305 434.702
-4.29453 -0.878277 440.314
-7.40042 -3.50765 440.269
-6.57542 3.39385 440.284
62.8529 14.0885 435.614
46.0509 16.874 437.61
14.354 -31.2924 439.003
22.4788 -28.2704 438.874
63.1187 -2.69607 435.803
12.917 -38.5245 438.481
40.8798 -29.4605 437.47
9.09179 -1.95647 440.266
-7.469 5.04648 440.273
50.3948 15.3235 437.211
-5.89169 2.08757 440.33
-9.89276 14.5165 440.024
38.6325 -37.0213 437.12
21.3033 -29.8799 438.859
11.1824 0.971002 440.251
12.7561 -2.31441 440.203
20.0872 -31.8451 438.783
17.1087 -40.543 438.192
45.6847 -10.2272 437.901
-3.68084 15.83 440.099
64.1112 12.3374 435.538
-6.68477 11.2725 440.209
-8.64459 -2.12795 440.317
43.8708 -16.4669 437.913
59.9831 -4.65133 436.286
39.6893 -39.5126 436.84
40.2589 -38.4981 436.883
-11.8016 6.50577 440.215
-10.9251 1.97838 440.284
-11.2635 11.2707 440.137
9.93689 -0.838671 440.312
5.78415 -10.5485 440.264
-11.6553 5.05252 440.252
-10.3872 0.755565 440.312
45.696 -6.9391 438.01
17.1759 13.3161 439.913
18.3799 -34.4553 438.73
-3.72145 -6.44478 440.409
13.9932 8.53457 440.172
19.1538 -40.0927 438.232
12.9321 3.70846 440.281
17.2604 4.12521 440.132
64.4066 -1.04259 435.755
-7.67504 9.90625 440.312
19.585 -32.5951 438.85
18.2055 -49.9732 437.272
14.187 -31.8689 439.112
11.8396 2.02698 440.332
20.7266 -43.2368 437.882
-5.0796 0.500213 440.47
14.4996 6.48282 440.217
65.662 0.624698 435.592
16.1378 -38.3791 438.544
-6.00198 12.4307 440.305
12.7683 10.7306 440.208
63.8844 13.6764 435.657
37.6906 -35.3517 437.488
-62.7631 107.383 422.608
1.9062 16.7463 440.211
11.2312 13.7295 440.178
13.6778 4.91 440.3
11.8002 -5.54505 440.351
-3.42988 -2.5722 440.525
13.043 -35.8324 438.894
12.1576 -4.01024 440.364
41.2293 -32.6676 437.401
64.6355 11.0687 435.65
-10.8673 12.5281 440.25
39.3808 -39.6568 437.006
-11.68 9.47521 440.311
-9.39616 15.5041 440.196
66.8093 2.35183 435.474
38.0954 103.312 426.595
39.2636 -38.3822 437.142
8.72488 -12.9321 440.305
49.9483 14.9429 437.489
48.6132 -12.8308 437.712
-4.02677 -6.29427 440.528
64.3614 -5.92596 435.83
40.9092 -28.2568 437.784
31.4299 -25.0691 438.762
18.8583 -33.6895 438.906
-5.85299 -5.0389 440.534
-11.8401 7.85404 440.375
65.7057 9.45521 435.577
65.3605 11.0413 435.592
66.9121 -3.7402 435.481
17.712 -35.4956 438.82
-4.93795 14.0668 440.36
-6.56461 18.8297 440.164
62.4042 17.3323 435.83
-10.3262 13.8122 440.28
7.47471 -11.8146 440.409
11.5725 -6.9773 440.425
38.5405 -41.1781 437.015
11.4891 -11.0503 440.353
11.8197 12.5814 440.304
10.609 0.23933 440.514
41.4142 -34.0313 437.37
14.2837 7.85348 440.342
13.3763 9.51276 440.341
31.3775 -25.8957 438.771
64.1833 16.4598 435.644
-8.7006 16.5203 440.264
18.7848 5.45664 440.229
16.5219 -48.4329 437.683
40.9993 2.59672 438.749
-3.04734 16.9467 440.336
40.9005 -30.7909 437.691
67.0689 7.81185 435.473
-4.18862 15.2213 440.394
11.4634 -16.0071 440.24
2.82125 -3.78467 440.655
13.9639 -32.6755 439.25
37.1205 -43.3737 436.975
-1.78292 -3.67083 440.68
2.1351 16.7527 440.378
12.8172 -37.1446 438.949
17.3647 1.63656 440.364
9.39566 -1.45558 440.607
17.1354 -36.3995 438.875
10.2163 -14.5256 440.393
41.773 -35.5236 437.331
17.8781 4.81959 440.367
17.0889 -49.1134 437.685
19.8229 -45.5143 437.966
-11.5608 3.86313 440.603
10.7148 14.5176 440.409
5.3302 16.5269 440.442
40.2204 3.28016 438.933
13.364 16.9936 440.253
16.5507 3.57689 440.461
11.3884 -9.98131 440.527
67.3375 3.36322 435.607
14.6807 15.4945 440.28
41.72 1.81759 438.815
66.1823 1.82672 435.802
19.5062 5.99566 440.331
16.5463 1.98743 440.489
20.7144 -48.6528 437.621
7.61708 -4.01363 440.727
8.75859 -4.01347 440.708
12.2377 -17.1764 440.31
16.6324 -37.1499 438.936
-7.39002 10.7439 440.639
11.3816 -8.46405 440.605
16.26 14.0126 440.315
13.1449 -18.9803 440.235
35.4903 -45.8509 437.016
1.68042 -3.78618 440.83
-8.0194 17.4015 440.436
12.3652 -2.82582 440.672
10.6517 19.1074 440.312
1.79291 20.1757 440.39
10.1989 15.5008 440.466
-2.02308 18.2528 440.48
12.8135 -40.374 438.823
31.1089 -48.1445 437.124
12.6861 -17.9834 440.321
44.1697 4.99836 438.629
67.1933 6.57131 435.679
66.1198 8.05085 435.82
64.9085 10.1472 435.966
32.3234 -51.2661 436.705
-7.33513 18.163 440.456
68.2362 -2.04855 435.581
6.47515 -11.092 440.711
14.1734 -22.3867 440.103
10.1207 19.3761 440.368
12.3325 11.4723 440.593
68.5385 5.14459 435.528
36.6988 -44.1852 437.166
-2.65957 -3.32993 440.904
-7.11332 4.09389 440.851
-4.36836 20.6344 440.44
12.3563 3.00836 440.763
39.6263 -21.2672 438.648
45.5282 -3.31238 438.58
-11.5626 10.5993 440.67
42.5672 -18.3069 438.508
4.38509 20.4075 440.471
24.3722 8.42156 440.215
-5.92877 19.4965 440.511
17.8126 12.6931 440.442
42.0836 -36.9207 437.418
11.6784 18.4148 440.446
67.5351 5.16675 435.762
-2.43159 1.23908 440.986
18.0932 -22.5322 440.047
14.2417 -45.0357 438.461
10.056 -3.93879 440.867
36.1977 -44.791 437.237
-5.17297 -5.61493 440.952
19.7065 11.4303 440.436
21.6429 10.3639 440.372
58.9218 15.7112 436.797
20.6227 6.7155 440.505
44.8626 3.50586 438.738
44.3644 6.48407 438.757
14.7687 -1.46689 440.805
13.5432 -20.4382 440.373
-5.63074 1.23917 441.018
13.9118 -21.7182 440.303
24.0353 9.17103 440.309
20.5873 10.8871 440.447
45.7579 -8.53926 438.603
66.7059 8.90362 435.903
17.4722 -41.5058 438.77
64.8651 0.0504633 436.282
69.6596 0.847764 435.543
18.6454 12.0413 440.527
-7.22753 12.5452 440.854
16.6382 -40.0226 438.957
67.6711 12.9299 435.679
34.3182 -47.3445 437.206
42.0355 -38.6009 437.409
35.2285 -31.2637 438.6
14.3382 -23.5126 440.265
45.7081 1.94721 438.749
65.7333 15.1535 435.944
6.10844 20.3233 440.623
67.648 -2.65201 435.909
12.9326 -41.4143 439.005
37.7585 -22.4952 438.955
36.7027 -23.1049 439.018
8.87389 16.3111 440.776
69.9296 2.12656 435.585
45.5378 -11.1163 438.672
14.5652 -25.0312 440.228
22.4808 9.94312 440.505
38.1531 103.247 427.241
47.4095 -1.18228 438.641
52.0481 -10.5697 437.992
66.3362 14.476 435.948
45.6598 8.50721 438.753
-3.66704 -2.78343 441.184
-5.63016 13.3482 440.973
10.8161 -15.434 440.812
37.3427 -48.7112 436.926
-0.00967384 19.372 440.793
4.42185 16.5437 440.888
68.7287 -1.22721 435.842
15.3806 14.7105 440.716
69.2065 0.170833 435.769
13.3844 -43.2244 438.906
2.66968 20.3447 440.756
69.6581 9.47767 435.601
-2.65937 18.0277 440.87
68.3282 12.126 435.757
45.3774 -5.6341 438.88
66.9366 13.8733 435.935
34.8108 -30.541 438.826
18.6072 -43.5478 438.73
63.4274 -6.46516 436.655
18.2549 -46.4737 438.454
41.0797 -43.8475 437.185
46.466 0.550875 438.853
41.6944 -41.4968 437.37
34.4217 -30.037 438.938
18.1415 -42.8132 438.855
45.6396 -9.96484 438.832
7.2375 20.1561 440.792
-6.77459 11.7524 441.107
44.6998 -14.4546 438.813
71.8222 2.80268 435.429
45.0518 -3.93307 439
34.9119 -46.5215 437.48
3.85443 -1.9611 441.31
45.144 7.79627 438.948
-0.603705 18.9818 440.925
43.8279 -16.3655 438.847
41.8974 -19.0352 438.93
40.1601 -20.7393 439.018
31.4535 -51.5501 437.195
8.83652 19.8145 440.814
46.2846 9.51867 438.811
33.6795 -50.3394 437.174
38.8941 -21.7443 439.106
28.1055 -52.0255 437.383
43.1115 -17.4393 438.91
70.2768 4.98289 435.71
14.4479 -29.744 440.132
19.2267 -23.4405 440.335
43.9943 5.44317 439.146
69.9684 3.45566 435.786
12.6542 -1.96059 441.195
62.3374 -3.52632 436.944
60.5127 17.9763 436.846
41.4838 -23.548 438.798
68.9938 10.9342 435.83
45.4236 -11.9102 438.888
45.6016 -7.14948 438.973
41.2987 -43.0252 437.347
40.4982 -44.6709 437.264
-3.8034 16.0943 441.094
20.2699 -24.0839 440.282
42.0232 -40.1459 437.575
41.028 -19.9221 439.056
48.5916 13.0474 438.542
14.611 -28.0501 440.289
-6.70236 2.9171 441.365
41.0578 -25.9902 438.768
39.4964 -46.5684 437.21
14.5714 -26.4873 440.418
19.0133 -44.4026 438.805
-2.739 -3.56267 441.434
11.0572 1.24002 441.322
8.08061 16.323 441.098
48.1315 -2.55644 438.835
20.1904 -46.4845 438.557
44.0044 5.7858 439.247
12.6538 10.3829 441.181
70.1936 6.50833 435.824
68.3243 5.97088 436.142
35.8358 -32.4183 438.85
36.0022 -49.2926 437.263
8.42952 -1.96161 441.424
-7.33297 11.1698 441.307
45.1178 -13.1341 439.009
30.4494 -51.8023 437.411
33.2932 -50.6284 437.342
5.80041 -1.96186 441.481
-0.0488993 -5.00097 441.496
36.3776 -33.3965 438.756
44.2102 -15.5991 439.032
14.4984 -45.8841 438.898
9.74464 -0.532115 441.421
38.7936 -47.3391 437.268
-5.33191 0.134854 441.5
39.7345 -45.9023 437.339
61.7666 -3.98124 437.176
-4.21371 -2.21614 441.513
37.973 -41.6531 437.929
45.3648 2.48552 439.198
21.7856 7.40746 440.949
48.9255 -4.01526 438.819
48.1322 12.4002 438.756
41.2225 -25.0434 438.926
47.4344 11.295 438.872
14.0857 7.58456 441.286
12.4215 17.6922 441.048
-7.89147 4.93293 441.485
-4.86153 -1.07153 441.556
11.0553 13.4707 441.246
46.8764 10.5016 438.969
-6.46539 1.93789 441.54
14.2502 -30.8261 440.286
35.5025 -50.0532 437.311
63.9231 -1.13905 436.951
20.9327 -24.52 440.432
13.7911 -32.5686 440.196
63.0131 -2.42061 437.095
40.8377 -27.8706 438.845
40.916 -26.8996 438.902
13.9966 -31.4973 440.278
-3.06619 3.66301 441.605
-6.66714 -4.5932 441.56
19.6548 -41.0989 439.28
18.5982 5.58308 441.211
-7.33734 3.52847 441.572
-1.64471 -4.01164 441.646
12.7192 4.0425 441.47
48.3579 -12.9392 438.826
14.1274 6.59553 441.397
-6.49722 12.7436 441.441
-0.261399 -4.25094 441.655
5.80205 -4.36505 441.616
46.9555 -0.472641 439.177
-0.261522 5.01676 441.661
69.9062 7.8703 436.061
4.38902 -6.52536 441.634
21.6125 -29.0524 440.217
11.3426 2.1812 441.553
12.1023 -2.62763 441.532
-2.89085 17.9325 441.337
-6.08091 0.680648 441.673
41.9808 13.7592 439.505
-2.74067 2.53791 441.704
36.2009 104.248 427.714
1.2261 2.04216 441.715
1.18328 -4.29434 441.702
2.71373 2.04206 441.712
7.24085 -4.4144 441.65
-7.07807 12.3121 441.505
-5.24766 14.4154 441.468
2.71381 0.554568 441.727
-1.48205 0.684332 441.734
-1.1388 -0.627859 441.736
-0.261454 6.50457 441.693
14.7076 -0.8181 441.496
11.09 -9.9108 441.491
11.4817 -4.02135 441.576
10.1354 0.66892 441.631
-9.63036 -1.27623 441.641
11.1685 -6.94236 441.552
12.6963 -37.0132 440.015
11.3049 -5.44485 441.573
-1.06193 14.9654 441.499
4.20126 -4.36596 441.713
2.71391 -1.0475 441.747
44.6826 15.8735 439.204
18.352 -22.9696 440.787
1.22628 -1.04758 441.766
11.063 -8.4822 441.55
63.3926 -1.7163 437.196
4.20142 -5.5103 441.719
8.83053 -8.42897 441.605
-3.23664 6.50484 441.715
-1.74923 3.53009 441.76
1.22626 3.53014 441.765
18.7267 -47.0857 438.865
9.38596 -9.35984 441.582
13.1971 -34.3463 440.246
-0.26154 2.04241 441.779
7.54151 -8.07222 441.649
8.70529 -1.00059 441.701
12.9644 9.2987 441.503
-4.16499 5.2592 441.741
-1.7492 5.01782 441.761
-5.64017 -0.589887 441.757
2.74257 -5.43917 441.752
22.2856 -25.205 440.512
1.22639 0.554687 441.793
4.20184 -1.04757 441.775
22.1461 -28.3558 440.329
5.88982 -6.82439 441.706
2.71402 -4.36651 441.769
4.20182 2.04241 441.775
5.80394 0.554582 441.761
-0.261519 0.554687 441.8
5.80401 -1.04752 441.763
-0.237376 -0.97536 441.802
-1.74928 2.04255 441.795
36.8093 -34.2439 438.934
-1.40473 18.7928 441.402
-4.50892 6.5994 441.732
20.4033 -30.8837 440.253
5.80384 3.53004 441.755
13.7334 -0.0557274 441.595
19.7068 -45.7834 438.992
8.77845 3.52972 441.712
1.34079 -5.24403 441.781
4.20179 5.0179 441.769
-7.12787 2.29985 441.755
-0.261479 3.53043 441.806
8.77828 5.01719 441.706
5.80356 6.50517 441.737
69.4673 9.58803 436.225
16.1377 3.61403 441.52
5.80032 16.3375 441.489
7.29177 2.04239 441.767
40.7818 -30.9634 438.855
10.3302 -4.37069 441.691
8.77908 0.55465 441.746
40.6971 -29.546 438.964
2.71396 7.99322 441.757
49.5549 -4.90799 439.024
5.80447 2.04251 441.797
4.20217 3.53042 441.807
7.2914 -5.51066 441.747
4.20187 6.50578 441.774
-3.2373 5.01831 441.802
5.80406 -5.5109 441.77
45.8134 16.9329 439.136
8.77898 -4.4806 441.736
8.77931 2.04238 441.755
4.20237 0.554669 441.829
1.22639 6.50614 441.8
-11.2845 1.92738 441.701
8.77876 -5.51042 441.73
7.29214 -1.96323 441.789
5.80428 5.01816 441.788
62.2475 17.3077 437.108
7.29207 3.53031 441.784
13.1074 5.12236 441.636
-7.53417 -3.85681 441.782
11.064 -10.8854 441.591
11.6971 3.57536 441.696
63.9908 16.4693 436.897
2.71452 3.53079 441.845
-1.7494 6.50639 441.816
-3.23715 7.99375 441.784
7.29242 -1.04772 441.807
2.71442 5.01863 441.833
1.2265 5.01875 441.84
49.1064 13.949 438.913
69.4783 8.45951 436.294
43.7958 15.1231 439.437
-0.261497 7.99398 441.801
4.06256 16.4083 441.55
48.8682 -12.5269 438.984
7.29255 0.554626 441.814
16.217 0.586933 441.581
7.29188 6.50575 441.771
16.6904 4.62643 441.54
-3.48043 17.0746 441.536
2.71278 16.4546 441.566
7.29177 -6.99862 441.767
10.2661 6.50487 441.717
4.20208 7.99391 441.792
50.4818 -11.4238 438.843
2.71409 9.48134 441.774
8.77922 6.50537 441.75
8.7787 7.99266 441.726
13.798 -44.6961 439.403
-1.74924 9.48147 441.782
8.7791 -6.99835 441.746
-0.0896095 18.9677 441.482
2.71445 6.50669 441.838
-3.15295 10.8846 441.749
-1.74944 7.99438 441.819
7.29249 5.0184 441.809
1.22645 7.99442 441.825
7.28789 16.3393 441.539
11.7538 5.01735 441.721
1.2263 10.969 441.768
1.22583 16.4559 441.6
15.9496 1.92728 441.616
-8.3118 -3.03173 441.826
7.29103 10.9678 441.721
50.461 15.7529 438.744
45.6284 -3.09193 439.545
14.7835 0.508732 441.676
5.8042 9.48156 441.784
12.8568 -35.5424 440.307
10.2679 3.5303 441.795
10.2682 2.04256 441.805
19.3583 -32.5259 440.305
7.29184 9.48121 441.769
5.80468 7.99444 441.822
-4.03833 10.3973 441.792
11.3887 12.2999 441.617
7.29237 7.99404 441.804
16.5002 -48.8425 438.919
2.71401 12.4564 441.755
5.80401 10.9689 441.766
-3.23745 9.48248 441.827
69.499 3.93967 436.424
21.0984 -29.7285 440.435
16.5078 -33.8966 440.33
4.20233 9.48232 441.821
37.9511 -48.0919 437.676
1.22624 12.4567 441.767
12.6565 -40.0217 439.948
10.4145 -9.7611 441.716
10.2675 -6.99869 441.773
-9.73038 15.6287 441.565
4.202 10.9696 441.793
10.268 -5.51128 441.797
1.22655 9.48299 441.852
13.2402 7.99193 441.686
6.03291 -11.0616 441.78
-10.7265 0.554713 441.829
-0.261532 10.9704 441.825
24.1618 -25.924 440.54
18.6505 -33.6196 440.289
49.824 15.0476 438.89
-0.261485 9.48329 441.865
-1.74944 10.9705 441.828
10.2675 7.99358 441.776
-4.65959 7.97123 441.872
38.346 -37.1078 438.736
10.2685 5.01857 441.821
11.755 6.50562 441.765
-0.261514 12.4575 441.793
8.77983 9.48153 441.781
37.4362 -35.4677 438.952
9.76412 19.3851 441.439
9.85778 15.3223 441.6
10.2663 10.9679 441.724
5.30099 -10.5706 441.822
12.4427 -1.73438 441.802
20.6344 -47.4916 438.94
-12.2476 6.53629 441.766
11.6868 10.925 441.696
17.5076 5.16722 441.611
7.29154 12.4563 441.753
40.1528 3.19144 440.149
40.9172 -32.1631 438.914
62.6841 13.8039 437.311
-6.08188 13.9317 441.736
2.7146 10.9711 441.854
2.71404 14.0589 441.768
13.3664 -1.1048 441.798
8.72115 -13.2628 441.717
10.2676 9.48154 441.783
-5.64199 7.88134 441.9
1.22636 14.0594 441.783
0.234385 16.4216 441.703
5.80439 12.4575 441.796
14.3408 15.2709 441.515
11.7548 9.48091 441.755
23.3687 -25.7019 440.647
4.20231 12.4582 441.819
10.2001 13.9879 441.675
65.2856 0.917001 437.168
-12.1271 5.01856 441.824
28.8727 6.95167 441.021
10.2685 -8.48735 441.821
-0.261494 14.06 441.8
8.78025 10.9698 441.803
-1.73531 12.4449 441.853
11.7561 7.99411 441.804
12.6253 -38.3713 440.187
15.1616 1.901 441.774
27.6774 -29.5519 440.181
-5.04758 -5.90281 441.975
21.176 -48.7879 438.836
41.1758 -33.9504 438.814
13.0733 16.7125 441.538
-8.92476 -2.37116 441.952
21.8289 -49.2337 438.756
-6.78195 19.0866 441.586
15.0269 -47.0921 439.278
17.5135 -35.3946 440.284
5.80433 14.0596 441.791
-4.36823 9.29558 441.934
-6.06285 -5.20833 441.982
-12.2618 7.98529 441.813
18.7249 11.763 441.504
13.2442 6.50636 441.812
-2.79636 12.0022 441.887
4.20183 15.5466 441.766
8.78014 12.4575 441.797
5.80384 15.546 441.748
51.9255 -10.591 438.873
-12.0991 9.48168 441.795
63.7196 12.1539 437.281
7.06418 -11.8076 441.853
4.20233 14.0607 441.824
27.4697 -25.0091 440.508
14.0089 -32.3242 440.666
-4.76587 15.5469 441.774
16.046 13.6588 441.576
8.77959 14.059 441.768
1.2264 15.548 441.805
41.0169 -32.9934 438.937
45.6366 -9.35631 439.624
15.7824 -47.993 439.192
31.0722 -25.2565 440.273
-0.177611 15.4646 441.821
4.16966 19.8243 441.63
13.5305 15.681 441.611
1.22599 18.9766 441.689
17.5724 12.1753 441.582
64.6611 0.160654 437.349
-4.26973 -6.43039 442.041
7.29268 14.0607 441.824
41.4243 1.95342 440.159
4.22395 18.8735 441.685
12.1827 17.46 441.597
38.3411 4.50832 440.423
2.71443 15.549 441.834
-11.8415 3.53149 441.945
64.7148 -5.56875 437.329
10.0382 -14.7806 441.765
20.6076 10.5365 441.522
69.6415 1.22678 436.608
15.4202 2.84402 441.852
-11.2872 12.6869 441.806
7.29241 15.548 441.804
40.8347 2.52947 440.242
17.8212 1.47019 441.778
-10.7092 13.9778 441.79
11.439 18.2143 441.618
20.547 7.06261 441.609
65.2574 9.28013 437.203
24.6266 -26.1608 440.685
64.415 13.6875 437.216
8.7799 15.5473 441.788
45.6452 -8.44679 439.707
-11.8404 10.9799 441.858
18.7248 -50.8325 438.822
18.1747 -34.2967 440.447
10.2694 12.4593 441.861
30.5234 -48.0661 438.475
64.3112 10.9502 437.318
4.22973 -9.92923 442.029
15.9309 -0.912715 441.873
10.2481 18.7297 441.649
19.2114 6.6397 441.701
18.1597 -50.3879 438.913
17.3686 -49.7183 439.022
7.63785 -12.3821 441.932
-1.39162 13.8757 441.954
0.310734 19.3229 441.758
1.31582 19.6009 441.745
17.858 8.05889 441.749
15.1532 12.6277 441.744
1.32536 -8.67276 442.097
17.9965 6.43715 441.778
5.80376 18.8648 441.751
7.27562 19.6485 441.696
9.29667 -13.9259 441.877
44.1332 4.59844 439.964
65.9837 1.99058 437.24
5.76002 19.8281 441.714
23.57 9.06027 441.477
14.7548 14.0831 441.732
-8.32991 17.55 441.777
-4.19181 16.5047 441.882
25.976 -51.6934 438.41
2.74946 19.7885 441.761
15.4181 11.5418 441.793
38.9348 -38.3532 438.825
26.7333 -29.5677 440.416
17.7046 10.9679 441.729
66.9768 3.59738 437.105
26.4128 -26.3868 440.646
63.2763 12.7892 437.488
17.7062 9.48122 441.769
8.66996 19.5375 441.709
45.6524 8.75488 439.776
16.5841 9.87747 441.81
