ply
format ascii 1.0
comment Created by Open3D
element vertex 1585
property double x
property double y
property double z
end_header
-0.00669654 0.0330182 0.463866
0.0110334 -0.00211453 0.466208
0.0201524 0.01283 0.465179
-0.0251008 0.046934 0.462948
0.0140666 0.0428834 0.463146
0.000139019 -0.00130941 0.466163
-0.0277335 0.0139012 0.465183
0.0216543 0.0329732 0.463797
-0.00791728 0.0159967 0.465
-0.00645232 0.0368404 0.463584
0.0209639 0.0229559 0.464471
0.014159 -0.00231572 0.466193
-0.0265402 0.0279933 0.464215
-0.0121969 0.0474533 0.462869
-0.00742695 0.0236774 0.464464
-0.0081616 0.0128708 0.465196
-0.02759 0.0159841 0.46502
-0.0284424 0.00400025 0.46583
0.0216547 0.0324132 0.463805
0.0211141 0.0259108 0.464246
0.0216501 0.0338475 0.463707
-0.0277721 0.0129316 0.465214
0.0150269 0.0418461 0.463172
0.0200807 0.0118345 0.465192
0.00713772 -0.00184982 0.466141
-0.00840549 0.00998249 0.465358
0.0133122 -0.00219477 0.466136
0.019805 0.00685085 0.465506
0.0121738 -0.00222919 0.466133
0.021286 0.0289588 0.464001
-0.0276053 0.0150233 0.465033
0.00314831 0.0464915 0.462841
0.0212366 0.0270499 0.464122
0.00413617 -0.00171167 0.466087
0.00627469 -0.00188408 0.466094
-0.00693922 0.0289433 0.464027
0.00195096 0.0411272 0.463182
0.0182433 0.0380823 0.463355
0.0188628 -0.00195294 0.46606
-0.0274103 0.0194767 0.464696
-0.0229348 0.000116399 0.465993
-0.0281835 0.00685142 0.46554
-0.00889506 0.00323549 0.465747
-0.0255121 0.0440703 0.463012
-0.0253886 0.0449433 0.462947
0.0195648 0.00552488 0.465529
0.0160099 0.0407644 0.463149
-0.0158753 -0.000262856 0.465979
-0.0263933 0.0330096 0.463746
0.00809003 0.123233 0.45757
-0.0138715 0.0474403 0.462742
-0.0239125 0.000171505 0.465959
-0.0217719 0.000139337 0.465952
-0.0264968 0.0308803 0.463876
-0.0263902 0.0336061 0.46369
0.0100746 -0.00214595 0.46604
-0.0281886 0.00504361 0.465624
0.019569 0.00359646 0.46563
-0.0281853 0.00576653 0.46557
0.0200775 0.0110133 0.465116
0.0213014 0.0279779 0.463962
-0.0278845 0.0117852 0.46515
0.00522179 -0.00179178 0.466005
-0.0281755 0.00793432 0.465407
0.0174104 0.0390896 0.463205
-0.0254954 0.0428774 0.46302
-0.00645056 0.03587 0.463457
0.0181363 -0.00243555 0.466004
-0.0264544 0.0318699 0.463764
-0.0268262 0.0258504 0.464171
0.0117777 0.045525 0.462766
0.0165248 0.0401022 0.463122
0.0200789 0.0100021 0.465151
-0.00718104 0.0259439 0.46412
-0.0275359 0.0165912 0.464785
0.0176535 -0.00267693 0.466002
-0.0079147 0.0150283 0.464849
-0.0208954 4.74029e-05 0.465881
0.0204905 0.0170677 0.464648
0.0210305 0.0239831 0.464172
-0.0148506 -0.000343301 0.465883
-0.026032 0.0380422 0.463303
0.0195676 0.00287262 0.465595
-0.0279177 0.0110016 0.465131
0.0169033 0.0396393 0.463086
-0.00742372 0.0229456 0.464261
0.0201918 0.035939 0.463316
-0.00889254 0.00275216 0.465616
-0.00596394 0.0419465 0.462956
-0.0253774 0.0455228 0.462743
-0.0257501 0.0419885 0.462979
-0.0103447 -0.000745514 0.46584
-0.00858559 0.00684792 0.465316
0.0142713 -0.00267643 0.465914
-0.028072 0.00913548 0.465193
0.020956 0.0210232 0.464295
-0.00572124 0.0449216 0.462723
0.0160807 -0.00267633 0.465898
-0.0258163 0.0399198 0.463091
-0.0255436 0.000219698 0.465773
-0.0267501 0.000219699 0.465775
0.0199509 0.00797028 0.465161
0.0215144 0.0343032 0.463373
-0.0271157 0.0229308 0.464233
0.00220344 -0.00171073 0.465833
0.00304801 -0.00183139 0.465833
0.0209511 0.0219801 0.464187
-0.00620552 0.0389599 0.463087
0.0171653 -0.00267609 0.465856
-0.0076664 0.0195843 0.464394
0.0211337 0.0248782 0.463974
-0.0280955 0.0098561 0.465081
-0.00840077 0.00901316 0.465096
0.0193044 0.0370447 0.463139
-0.024696 0.00021967 0.465714
-0.0109458 -0.000745372 0.465751
-0.027032 0.0239511 0.464106
-0.0272414 0.0211427 0.464281
-0.0262171 0.0331096 0.463463
-0.0277393 0.0524079 0.462157
-0.0257235 0.040889 0.462931
0.0153538 -0.00279643 0.465806
0.00075547 -0.00171045 0.465756
-0.0127848 0.0474108 0.462453
-0.00693497 0.0282049 0.463742
-0.00815548 0.011898 0.464847
-0.0259805 0.0389167 0.463049
-0.0262887 0.0349388 0.463313
-0.0261211 0.0368381 0.463178
-0.00864435 0.00588298 0.465239
-0.0275529 0.0187824 0.464395
-0.0270249 0.0248032 0.463985
0.0195609 0.00202786 0.465438
0.0198388 0.00595429 0.46517
0.019822 0.0366809 0.463088
-0.0269824 0.000460822 0.46562
-0.0253654 0.0459805 0.462524
-0.00669052 0.0317881 0.46345
0.0211459 0.0348494 0.463188
0.0197922 0.00491851 0.465207
0.0206633 0.0356044 0.463126
-0.010795 0.0473559 0.462385
0.000152275 -0.00171019 0.465685
-0.0272159 0.0219636 0.46412
0.0200203 0.00896932 0.464907
0.00410339 0.0464466 0.462394
-0.0285686 0.00493257 0.465267
-0.00644685 0.0348896 0.463191
-0.00717714 0.0248485 0.463868
0.0187364 0.037868 0.462937
-0.00669051 0.0309479 0.463449
-0.0088886 0.00202773 0.465409
-0.0074204 0.0219739 0.464054
-0.026306 0.0340554 0.463267
0.00242658 0.0464443 0.462371
0.0207942 0.0178152 0.464265
-0.026549 0.0330991 0.463318
0.0209077 0.019893 0.464115
0.00362404 0.0463231 0.462357
-0.00766379 0.0188562 0.464236
-0.00793142 0.0471273 0.462317
-0.00843883 0.00784663 0.464978
-0.0117027 0.0473942 0.462292
0.0137797 -0.00243351 0.465615
0.0177724 0.0388167 0.462811
-0.0284314 0.00788704 0.464992
-0.00571857 0.0439423 0.462507
-0.00596065 0.0410845 0.462701
-0.0265708 0.0319815 0.463351
-0.0253551 0.0469196 0.462335
-0.0272978 0.0201749 0.464149
-0.00571664 0.0460829 0.462351
0.0219926 -0.00677881 0.465876
-0.0273752 0.020774 0.464102
-0.0261951 0.035827 0.463074
-0.00620273 0.0381031 0.462879
-0.0284739 0.00684385 0.465031
-0.0285178 0.00588101 0.465092
-0.0276532 0.0170079 0.46433
0.0217645 0.031961 0.463222
-0.0278157 0.000581202 0.465438
-0.00815242 0.0112917 0.464673
-0.00693222 0.0277134 0.463558
0.0204813 0.0139323 0.464439
-0.026007 0.000460636 0.465432
0.0208267 0.0188505 0.464095
-0.0286449 0.00388235 0.4652
-0.0320507 -0.00291622 0.465666
-0.0228497 0.0482377 0.462179
-0.015882 -0.000503799 0.465466
-0.0169278 0.0477833 0.462196
0.0195072 0.000797905 0.465307
-0.0276017 0.0178615 0.464237
-0.0218737 0.0482177 0.462151
-0.0283821 0.00864706 0.464843
0.0217179 0.0309935 0.463235
0.00523055 0.0462922 0.46222
-0.00309258 0.0213667 0.463921
0.0197859 0.00395362 0.465057
0.0156049 0.0414278 0.46252
0.0112201 -0.00238463 0.465493
0.00194848 0.0407153 0.462591
-0.00675182 0.0471419 0.462167
-0.0238173 0.0482446 0.462123
-0.0149134 0.0478225 0.462134
-0.00766226 0.0178907 0.464143
-0.0288287 0.00202695 0.465251
0.0111476 0.04588 0.462202
-0.00668863 0.0298592 0.463318
-0.0188793 0.0480454 0.462106
-0.00863995 0.00491646 0.465002
0.00302397 0.0465429 0.462162
0.0218108 0.0329834 0.46304
0.0124488 -0.00243267 0.465453
0.00707005 0.0462798 0.462164
-0.0179278 -0.000383165 0.465367
-0.0170358 -0.000455476 0.465368
0.00218693 0.0436872 0.462342
-0.0275755 0.0198253 0.464005
0.0217745 0.0340319 0.462949
-0.0140514 0.0476927 0.462091
-0.007174 0.0242371 0.463665
0.0207872 0.0168876 0.464107
0.00918176 0.0460762 0.46215
0.0101093 -0.00233602 0.465415
-0.0250218 0.0478909 0.462078
0.0215674 0.029673 0.463223
0.00797898 0.0462281 0.462126
0.0131708 -0.00243241 0.465405
-0.00595836 0.0405895 0.462523
-0.0177997 0.0479271 0.462043
0.0101539 0.0460424 0.462116
-0.0287071 0.00307605 0.465093
-0.0278627 0.0160096 0.464213
-0.0208586 0.0481861 0.462013
0.0193933 -0.00114631 0.465274
-0.00912676 -0.000142082 0.465256
-0.026591 0.0335565 0.463006
0.01336 0.0439949 0.462222
0.0128798 0.0446688 0.462174
-0.00990119 0.0473675 0.462032
0.0204276 0.0128222 0.464313
0.00605521 0.0463342 0.46207
-0.00790532 0.0136877 0.464298
-0.0266397 0.0308884 0.463159
-0.00888369 0.000942375 0.465152
-0.0250327 1.29376e-05 0.465245
-0.0199506 0.0481987 0.46197
-0.00988033 -0.000925277 0.465276
-0.00644292 0.0339092 0.462909
-0.000570914 -0.00170881 0.465309
0.0207533 0.0160366 0.464066
-0.00898319 0.0472056 0.46201
-0.00619966 0.0376049 0.46265
0.0207075 0.0151248 0.464117
-0.0157965 0.0478726 0.461958
-0.028038 0.0140304 0.464272
0.0124785 0.0450991 0.462088
-0.000739537 -0.00137119 0.465257
-0.00692888 0.02698 0.463335
-0.00814814 0.0108046 0.464429
-0.027347 0.0231542 0.463624
-0.00595131 0.0468829 0.461974
-0.0283657 0.00900302 0.464574
-0.00741463 0.0213562 0.463693
0.0120454 0.0455936 0.462003
-0.0207514 -0.000262386 0.465168
0.00410673 -0.00210281 0.465236
0.0194651 -0.000182118 0.46507
0.0203697 0.0119341 0.464246
-0.0265722 0.0364088 0.462678
-0.0257018 0.0447424 0.46211
0.0197766 0.0031088 0.464841
0.014108 0.0430225 0.462149
0.0161846 0.0409712 0.462283
0.0030439 -0.00200961 0.465215
-0.00765907 0.0169219 0.46395
-0.0265773 0.0348975 0.462766
-0.0118119 0.0475908 0.461876
0.00457778 0.0463994 0.461925
-0.0189344 -0.000400111 0.465138
0.00714084 -0.00231092 0.465218
0.00123648 -0.00182883 0.465196
0.00908583 -0.00229364 0.465212
-0.0129283 0.0476302 0.461871
0.0215238 0.0269554 0.463206
-0.0118956 -0.000864846 0.465152
-0.0239589 -9.03061e-05 0.465121
0.0215725 0.0288599 0.463075
0.0137551 0.0436232 0.462089
-0.0257463 0.0430347 0.462194
-0.0269302 0.0279655 0.463216
0.018071 -0.00277564 0.465211
0.0151676 0.0420889 0.462178
-0.0279997 0.0149798 0.464094
-0.025857 0.0438555 0.462135
0.0191474 -0.0020696 0.465154
-0.0268656 0.0288483 0.463145
0.00527274 -0.00219021 0.465184
0.0160572 -0.00303384 0.465215
-0.0268614 0.0297766 0.463073
-0.026848 8.17188e-05 0.465083
7.98579e-05 -0.00185278 0.46516
0.00805235 -0.0023279 0.465176
-0.0110929 0.0475859 0.461828
-0.00863577 0.00395103 0.464777
-0.0281824 0.0128829 0.464199
-0.0259862 0.000123062 0.465058
0.00612437 -0.00225896 0.465158
0.00206885 -0.00197098 0.465145
0.0203693 0.0108688 0.464236
0.0217731 0.0301931 0.46292
-0.00571371 0.0428277 0.462114
0.0170438 -0.00300945 0.465174
-0.0275914 0.000139104 0.465044
-0.00716999 0.0237435 0.463406
-0.0138212 -0.000864724 0.465083
-0.0227337 -0.000232285 0.465056
0.0111154 -0.00267203 0.465149
0.0216195 0.027923 0.463052
-0.0260055 0.041937 0.46219
-0.00893884 0.0475805 0.461776
0.0141573 -0.00285264 0.465144
-0.0282411 0.0119334 0.464222
-0.0109295 -0.000985166 0.465057
-0.0256189 0.0458717 0.461912
-0.0270813 0.0270195 0.463188
0.0193135 0.037345 0.462399
-0.00595515 0.0398492 0.462273
-0.0282671 0.0109211 0.464273
0.020701 0.0139184 0.463971
-0.00977545 0.0475777 0.461748
-0.0283022 0.0100324 0.464322
-0.00936294 -0.000864638 0.46502
-0.0198581 -0.000365625 0.465005
0.0197765 0.000941593 0.464837
-0.00619676 0.0369885 0.462434
0.0149346 -0.00294695 0.465098
-0.00284948 0.0213459 0.463469
0.0203674 0.00994038 0.464195
-0.00741156 0.0208672 0.463501
-0.0272013 0.0260116 0.463187
-0.0262517 0.038954 0.462309
-0.0286234 0.00142326 0.464852
-0.0147298 -0.00084733 0.464978
0.0215013 0.0260062 0.46309
-0.0218617 -0.000310514 0.464952
0.0212308 0.0228179 0.463295
0.021413 0.0250786 0.463127
-0.00838859 0.00671465 0.464422
-0.0262566 0.0371052 0.462396
0.00577124 0.0466149 0.461688
-0.0260212 0.0409727 0.462116
0.014867 0.0425713 0.461929
0.0203407 0.0362384 0.462338
-0.00838871 0.00611326 0.464428
-0.00765585 0.0159539 0.463755
-0.00814338 0.00995673 0.464157
-0.0274619 0.0494664 0.461517
-0.0274503 0.0523134 0.461324
-0.00643849 0.0329274 0.46259
-0.0261905 0.0379345 0.462286
-0.00765609 0.0153538 0.463769
-0.00692456 0.0260038 0.463046
0.0131178 -0.00275115 0.464952
0.0171123 0.0398847 0.462055
-0.027318 0.0249289 0.463132
0.0122074 -0.00283129 0.464932
-0.0273219 0.0238528 0.463197
-0.00668127 0.0289872 0.462809
-0.0214856 0.0482722 0.461528
-0.0128508 -0.000864281 0.464838
0.0211506 0.0209777 0.46329
0.0209052 0.0357394 0.462287
-0.00789853 0.0127147 0.463899
-0.0158199 -0.000784021 0.464823
-0.0286894 0.00794889 0.46425
0.00481352 0.0463653 0.461585
0.0211946 0.0220054 0.463203
-0.00716668 0.0228928 0.463192
-0.0168229 -0.000864228 0.464814
-0.00740963 0.0200216 0.46338
0.0179222 0.0390511 0.462038
-0.0212446 0.0482679 0.461487
-0.0320035 -0.0030725 0.464981
0.0202642 0.00899312 0.46406
-0.00571057 0.0420864 0.461859
-0.0261768 0.0398296 0.462045
-0.00692344 0.0254 0.462972
0.0206917 0.0127109 0.463762
0.0200867 0.00579783 0.464218
0.0198515 0.0369857 0.4621
-0.0275495 0.0251612 0.46299
0.0213761 0.0239013 0.462978
0.00809736 -0.00267001 0.464798
0.00894001 -0.00266999 0.464794
-0.0265428 0.0370867 0.462166
-0.00862936 0.0029858 0.464432
-0.0287552 0.00691743 0.464202
-0.0285678 0.010553 0.463947
-0.00682052 0.0473042 0.461414
0.0190276 0.0378515 0.462003
-0.0286769 0.00897564 0.464047
-0.00619331 0.0359704 0.462176
-0.00595135 0.0388666 0.461979
0.0200711 0.00490819 0.464227
0.0202564 0.0080135 0.464013
0.0219818 0.0337822 0.462265
0.00725412 -0.00266978 0.464758
0.0100467 -0.00271789 0.464752
-0.00765288 0.0151072 0.463575
-0.0288444 0.00142228 0.464532
-0.0276611 0.0219134 0.46314
0.0201843 0.00686984 0.464067
-0.0177893 0.0482173 0.461331
0.0213719 0.0350672 0.462144
-0.0276641 0.0209902 0.463189
0.0221899 -0.00652453 0.464953
-0.0085723 0.0472988 0.461362
-0.0285586 0.0118711 0.463798
-0.00716464 0.0221666 0.46306
0.00732102 0.0463453 0.461386
-0.0266609 0.0359274 0.462138
-0.0286132 0.00987915 0.463904
-0.0278708 0.0200313 0.463207
-0.00546662 0.0451578 0.461463
-0.0149268 0.0481027 0.461279
0.0206886 0.0112679 0.463694
-0.00779461 0.047293 0.461304
-0.00813864 0.0091099 0.463888
0.0220625 0.0319476 0.462284
0.00893701 -0.0024284 0.464636
0.0200369 0.00401809 0.464176
-0.0276295 0.0228428 0.462991
-0.0289613 0.00398676 0.464264
0.0051692 0.0465771 0.461315
0.0198738 0.00202289 0.4643
-0.0265318 0.0376696 0.461973
-0.00740654 0.0191735 0.463187
-0.0197007 -0.000502798 0.464541
-0.0229496 -0.000502803 0.464546
0.019943 0.00291223 0.464231
-0.0187902 0.0482934 0.461225
0.02114 0.0200077 0.463058
-0.0267162 0.033875 0.462209
0.0211426 0.0190505 0.463116
-0.0279981 0.0179291 0.463271
0.0218714 0.0346234 0.46204
-0.0289366 0.00586821 0.464082
-0.0209019 -0.000502749 0.464496
-0.0310202 -0.00315077 0.464683
-0.0216232 -0.000502737 0.464485
-0.0168107 0.048116 0.461177
-0.0218777 0.0485743 0.461154
-0.0267475 0.0349258 0.462083
0.0081549 0.0463308 0.461242
-0.0198752 0.0484711 0.461145
-0.0275794 0.0239133 0.462822
-0.0278897 0.0188426 0.463164
0.0134146 0.0444301 0.461352
-0.0256306 0.0468585 0.461261
-0.00781226 0.0475584 0.461175
-0.0100021 0.0476138 0.461173
-0.0227809 0.0485888 0.46113
-0.0159338 0.0481523 0.461144
-0.00789316 0.0118656 0.463583
-0.0265216 0.0387317 0.461797
0.00421219 0.0466847 0.461198
-0.0289368 0.0049467 0.464085
-0.0275298 0.0258622 0.46266
-0.00546418 0.0459739 0.461257
0.021062 0.0179306 0.463102
-0.0127996 0.0478553 0.461132
0.0221006 0.0328671 0.46208
-0.0281689 0.0159388 0.463317
0.0111575 0.0461554 0.461195
-0.024751 0.0482293 0.461118
0.0221802 -0.00676241 0.464749
-0.00643301 0.0317022 0.462197
0.0210478 0.0169645 0.463142
-0.00643342 0.0312254 0.462226
0.0209664 0.0159346 0.463197
-0.00892587 0.0476309 0.461107
-0.0238319 -0.000454503 0.46439
-0.027551 -2.15684e-05 0.464364
-0.0238522 0.0485816 0.461062
-0.013941 0.0479865 0.461081
0.012044 0.0459136 0.461165
0.00313667 0.0467964 0.461122
-0.0269159 0.0329446 0.462114
-0.0265145 0.0394387 0.461673
0.0220085 0.0309572 0.462155
-0.00862416 0.00214247 0.464153
0.010255 0.0462717 0.461129
-0.0118308 0.047825 0.461059
0.0196425 0.0375267 0.461687
-0.0270501 0.031024 0.462198
-0.0067353 0.0475839 0.461036
-0.0261397 0.0428801 0.46139
0.00496305 -0.00242714 0.464396
-0.029122 0.00196209 0.464162
-0.02728 0.0265713 0.462487
-0.00570071 0.047029 0.461059
-0.0271461 0.0300295 0.462248
0.0198525 -0.000158932 0.464203
-0.0290571 0.00290338 0.464087
-0.0209427 0.0485333 0.46098
-0.0281407 0.0168408 0.463136
-0.00593903 0.0475024 0.461018
-0.00886652 -0.000261912 0.464253
0.00616126 0.0466692 0.461045
-0.0262677 0.040264 0.461538
-0.0107626 0.0476438 0.461
-0.0168947 -0.000953401 0.464301
0.0154845 0.0421959 0.461313
0.0198887 0.00108431 0.464086
0.00910679 0.0463108 0.461043
0.00418091 -0.0024269 0.46435
-0.026089 0.0449327 0.461197
0.0197988 -0.00117579 0.464232
0.0130626 0.0449646 0.461116
-0.0178457 -0.000903299 0.464279
-0.025521 0.0476206 0.461007
0.0209061 0.0140149 0.46319
-0.010001 -0.00136145 0.464287
0.0219742 0.0299804 0.462105
-0.0282344 0.0149033 0.463211
-0.0260386 0.04584 0.461112
0.0193317 -0.00212575 0.464273
-0.0262605 0.0413286 0.461412
-0.0271844 0.0493966 0.460866
0.0209364 0.014989 0.463105
0.0204433 0.00790313 0.463578
-0.0262095 0.0419928 0.461356
0.00303807 -0.00242664 0.464299
-0.0182324 0.0484431 0.46088
-0.0261587 0.0439671 0.461197
0.0172289 -0.00338883 0.464319
-0.0193065 0.0484427 0.460876
-0.027268 0.0278367 0.462285
-0.0269644 0.0319046 0.462007
-0.0272159 0.028854 0.462212
0.0215889 0.0247696 0.462396
0.0143646 0.0431218 0.461164
0.021921 0.0289165 0.462105
0.00107367 -0.00226597 0.464252
-0.0274952 0.0306169 0.462077
-0.0282864 0.0128175 0.463275
0.0139325 0.0437364 0.461094
0.00207579 -0.00242633 0.46424
-0.0198451 -0.000822957 0.464166
0.00874578 0.0465355 0.460902
0.0215124 0.0229368 0.462469
0.0203558 0.00902045 0.463409
0.0151825 -0.0033282 0.464254
-0.0109088 -0.0013439 0.464169
0.0161443 -0.00338835 0.464253
-0.00910488 -0.00105188 0.464141
-0.00837578 0.00526311 0.463712
-0.000724172 -0.00201374 0.464186
0.00580264 -0.00242612 0.464201
0.00699444 0.0466121 0.460873
-0.0282784 0.0140134 0.463144
0.011265 -0.00301019 0.464221
0.0071493 -0.00281082 0.464206
0.0218204 0.0259577 0.462226
-0.0200186 0.0484327 0.460781
0.0219337 0.0278651 0.462092
-0.018721 -0.000880072 0.464113
0.0121512 -0.00324372 0.464215
0.0163566 0.0411502 0.461199
0.019745 -0.0018245 0.464098
0.0110125 0.0465291 0.460839
-0.0247984 -0.000399215 0.464083
0.021587 0.0236896 0.462356
0.0189053 -0.00266624 0.464141
-0.0258705 -0.000321911 0.464063
0.0208607 0.0129718 0.46307
0.0205901 0.036315 0.461485
-0.0137919 -0.00134368 0.4641
-0.0268017 -0.000382039 0.464059
0.0172814 0.0401649 0.461224
0.00814699 0.0465242 0.460791
-0.0160053 -0.00112028 0.464043
0.0140361 -0.00320703 0.464124
-0.027492 0.0288582 0.462024
0.0131209 -0.00317353 0.464113
-0.0129086 -0.00130346 0.464031
0.00616189 -0.00266593 0.464087
0.0052002 -0.00266594 0.464088
-0.0149197 -0.00127135 0.464031
-0.0285023 0.0160438 0.462884
-0.0208455 -0.000811224 0.464006
0.00908689 -0.00298644 0.464094
0.0159373 0.0417258 0.461048
0.0151949 0.0426039 0.460987
-0.0118665 -0.00134347 0.464013
0.0178289 0.0396351 0.461176
0.0219137 0.0268528 0.462031
0.0207392 0.0117717 0.463037
-0.00837305 0.00478113 0.463562
-0.0286575 0.0109469 0.46318
0.000241885 -0.00224483 0.464017
-0.0276367 0.025971 0.462158
-0.0286188 0.0128779 0.463045
0.0203848 0.00703498 0.46334
0.0101617 -0.00300901 0.464037
-0.0287215 0.0118019 0.463106
-0.0227996 -0.000742476 0.463942
-0.0275749 0.0269066 0.462076
0.00426185 -0.0027135 0.464004
0.0182545 0.0390865 0.461147
-0.02757 0.0278193 0.461995
0.0214818 0.0218395 0.462303
0.0207793 0.0108522 0.463038
0.0167484 0.0406964 0.461021
-0.0267271 0.0390014 0.461215
0.0207413 0.0100137 0.463083
-0.0278629 0.024012 0.462222
-0.0317014 -0.00338711 0.464084
-0.0285033 0.0137664 0.462901
-0.0220152 -0.000802411 0.463872
-0.0100615 -0.00170367 0.463909
-0.0288549 0.00991133 0.463157
0.0114843 0.0462677 0.460613
-0.0175025 0.0484054 0.46052
0.0203519 0.0058587 0.46332
0.00303558 -0.00266498 0.463922
-0.027478 0.0296409 0.461789
0.0203541 0.00489914 0.46337
-0.0265829 0.0399684 0.461083
-0.0265962 0.0409349 0.461016
-0.0264652 0.0439008 0.460814
0.0182947 -0.00298531 0.463901
-0.0284947 0.0150806 0.46276
0.0214177 0.0353439 0.461291
0.0152923 -0.00362639 0.46394
-0.0307336 -0.00314608 0.46399
-0.0265899 0.0418803 0.460908
-0.0292625 0.00310003 0.463531
-0.0289493 0.00899909 0.46313
0.00195384 -0.00266463 0.463861
0.0214609 0.0209293 0.462221
0.0223893 -0.00675286 0.464093
-0.0267884 0.0380259 0.46115
0.0225078 -0.00651197 0.464058
0.00815277 -0.00295281 0.463837
-0.0281537 0.0191014 0.462411
0.0207541 0.00885289 0.463012
-0.0271403 0.0328874 0.46147
-0.0279779 0.0228808 0.462144
0.0187371 0.0386636 0.460986
-0.0277297 0.0249875 0.461997
-0.00545448 0.0473234 0.460438
-0.027127 0.0319184 0.461515
-0.00933744 -0.0017031 0.463754
0.0218065 0.0242662 0.461932
-0.0282391 0.0172284 0.4625
0.020285 0.0368795 0.461072
-0.0262099 0.0461394 0.460523
0.020328 0.00388702 0.463296
0.01721 -0.00362535 0.463807
-0.0264609 0.0428595 0.46074
0.0214456 0.0190667 0.46226
-0.0292606 0.00213943 0.463501
0.0206574 0.00801309 0.462994
-0.0281772 0.0200455 0.462271
0.0162082 -0.0036252 0.463787
-0.026212 0.0451887 0.460559
0.0193044 0.0380131 0.460957
-0.029028 0.00799744 0.463076
-0.0280567 0.0218959 0.462129
-0.0280604 0.0209145 0.462189
0.0218487 0.0250494 0.461814
0.0214409 0.0199175 0.462158
-0.0254254 -0.000501798 0.463618
-0.0291162 0.00693554 0.463115
-0.0207512 0.0487759 0.460266
-0.0282307 0.0179418 0.462364
-0.0269095 0.0368315 0.461067
0.021805 0.0229484 0.4619
0.0223371 0.0339001 0.461154
0.00123245 -0.00266352 0.463668
0.0220053 0.0348503 0.461085
0.021166 0.0359196 0.461013
0.0164958 0.0412593 0.460638
-0.0129619 0.0480571 0.460232
-0.0270453 0.0339838 0.461209
-0.0271022 -0.000501718 0.463543
0.0145826 0.0431556 0.460504
-0.0292439 0.00389803 0.463237
-0.0167752 0.0483719 0.460202
-0.0188962 0.0486561 0.460185
-0.0147885 0.0482921 0.460199
-0.0149764 -0.00134217 0.463555
-0.0198402 0.0488229 0.460164
-0.0125751 -0.00146224 0.463554
-0.0270782 0.0350498 0.461091
-0.0272136 0.0310475 0.461362
0.00515706 0.0468253 0.460231
0.0223661 0.0329035 0.461137
0.0213676 0.0179933 0.462146
-0.0270343 0.0359335 0.461022
-0.0218971 0.048841 0.46013
-0.0239228 0.0489199 0.460124
0.012159 -0.00338355 0.463595
-0.00788259 0.0064537 0.462963
0.0100837 0.0465453 0.460213
-0.0179642 0.0486022 0.460126
-0.00793029 0.0477478 0.460161
0.0134794 -0.00338345 0.463582
-0.00545783 0.0393574 0.460721
-0.0158191 0.0483643 0.46013
-0.00981297 0.0479369 0.460147
0.00420284 0.0469395 0.460182
-0.0291868 0.00482412 0.463093
-0.00584826 0.0477299 0.460142
-0.0107899 0.0480063 0.460126
0.00928038 0.0465579 0.460181
0.0211979 0.0159253 0.462229
0.00613349 0.046889 0.460155
-0.0292289 0.00585458 0.462998
-0.00739414 0.0138716 0.462412
0.0206502 0.00687147 0.462832
0.0203191 0.00302856 0.463092
-0.0286338 0.0140717 0.462427
0.022365 0.0319862 0.461115
0.00241487 0.0469353 0.46014
0.0110754 0.0465783 0.460146
0.012052 0.0461884 0.460164
-0.0229823 0.0489336 0.460041
0.0218006 0.0215086 0.461808
0.00315947 0.0470808 0.460108
0.0206547 0.00485447 0.462933
-0.00693977 0.0477926 0.460076
0.0146775 -0.00338286 0.4635
-0.0259082 0.0468951 0.460172
0.0140374 -0.00338286 0.463501
0.0128443 0.0455694 0.460188
0.0198401 0.0374483 0.460723
-0.000208565 -0.00242224 0.463457
0.0212881 0.0168307 0.462107
-0.0147431 0.0485911 0.46002
-0.0118161 0.0480492 0.460048
0.00714132 0.0468492 0.460075
0.022294 0.0308407 0.461128
-0.00888788 0.0478765 0.460024
-0.0294786 0.00213781 0.463154
0.0206489 0.00585215 0.462804
-0.0138289 0.0482709 0.459996
-0.0275789 0.0309678 0.461192
0.0202078 0.000842211 0.463135
-0.0284956 0.0189328 0.461998
0.0133398 0.0450293 0.46015
0.0080316 0.0467545 0.460037
0.0140963 0.0440415 0.460205
0.020652 0.00429449 0.462874
0.0212182 0.014941 0.462151
-0.00569715 0.0360203 0.460774
-0.0294681 0.00393576 0.462988
-0.028557 0.0168717 0.462108
0.0174426 0.040287 0.460434
-0.028438 0.0207923 0.461839
-0.0161696 0.0485812 0.459927
-0.0282819 0.000458428 0.463201
-0.0245085 0.0485817 0.459932
-0.00642235 0.0259131 0.461431
-0.0294628 0.00477424 0.462906
-0.017848 -0.00134137 0.463296
0.0212027 0.0139673 0.462184
-0.0287006 0.0148633 0.462217
-0.00451261 0.0219811 0.461684
0.0200832 -0.00104972 0.463186
-0.0280788 0.0490523 0.459876
-0.0295881 0.00297647 0.462991
-0.0285151 0.0178244 0.461982
-0.0169664 -0.00138128 0.463253
-0.0275116 0.0319395 0.461016
0.020296 0.00189704 0.462957
-0.0270051 0.0491681 0.459845
-0.0219247 -0.00110115 0.463228
-0.0188985 -0.00127447 0.463228
0.0217934 0.0207841 0.461656
-0.0286327 0.0157767 0.462088
-0.0274269 0.032849 0.460929
0.023638 0.040277 0.460321
-0.0238561 -0.000901179 0.463197
-0.00521023 0.0467948 0.459932
-0.027707 0.0289647 0.461178
0.0222885 0.0299733 0.461014
-0.00259923 0.0210236 0.461663
-0.00860477 -0.000261294 0.463109
-0.0276076 0.0299039 0.461101
-0.0140218 0.0485688 0.45981
0.0161226 0.0419113 0.460201
-0.028434 0.0198326 0.461775
0.0111183 -0.00333309 0.463262
-0.0274194 0.0339936 0.460803
0.0101503 -0.00330104 0.463256
0.0221943 0.0290198 0.461042
-0.0109372 -0.0018038 0.463192
0.0210705 0.0119797 0.462193
-0.00739022 0.0130263 0.462167
-0.0061769 0.0309005 0.460951
-0.0306887 -0.00330146 0.463312
-0.000880187 -0.00237285 0.463193
-0.00666233 0.0228089 0.461497
-0.016799 0.0485642 0.459766
0.00621027 -0.00305077 0.463217
-0.0247589 -0.000901045 0.463128
0.00408063 -0.00296077 0.463212
-0.00617856 0.0288786 0.461076
-0.0159228 -0.00146095 0.463147
-0.0264559 0.0458845 0.459961
0.0202114 -5.57036e-05 0.462982
0.0199427 -0.00194059 0.463108
-0.00521302 0.0419332 0.460178
0.0215511 0.0203028 0.461587
-0.00811848 0.00405353 0.462738
-0.0197928 -0.00128631 0.463116
0.0211973 0.0130407 0.462068
0.0194634 -0.00242046 0.463118
-0.026558 0.0439652 0.460061
-0.00605608 0.0318478 0.46084
0.0151244 0.0429144 0.46005
0.0250685 0.0386076 0.460317
-0.0118437 -0.00182067 0.46312
0.0221287 0.0258984 0.46117
-0.00879583 -0.00117296 0.463058
-0.00642029 0.0249489 0.461283
0.0215539 0.0186314 0.461647
-0.00811885 0.00301498 0.46276
-0.026535 0.0448117 0.459956
-0.0278117 0.0280606 0.461091
-0.0290179 0.0119096 0.462186
0.0210223 0.00983552 0.462229
0.0227017 0.0326718 0.460676
-0.00545297 0.0388454 0.46031
-0.0368306 0.101112 0.456152
-0.00980352 -0.00194044 0.463078
0.0224602 0.0333833 0.460616
0.0206422 0.00333381 0.462653
0.0222389 0.0280368 0.460976
-0.0281718 0.0231625 0.461398
-0.00763215 0.00895933 0.462319
-0.00836071 0.000697885 0.462878
-0.0280237 0.0258835 0.461208
-0.0291912 0.00824234 0.462402
-0.01496 -0.00170049 0.463045
-0.00714484 0.0167232 0.46178
-0.0266588 0.0429928 0.460038
-0.027886 0.0269704 0.461119
0.0210968 0.0109102 0.462112
-0.00593472 0.0326725 0.460687
-0.0290869 0.00994019 0.462269
0.0195224 0.0381858 0.460265
0.0224555 0.0343306 0.46052
-0.00811852 0.00237562 0.462741
-0.00787479 0.0058483 0.462505
0.0162075 -0.00382548 0.463114
-0.0127835 -0.00180316 0.463025
-0.00520812 0.0464186 0.459745
0.00518879 -0.00301987 0.463072
0.0222005 0.0270036 0.461006
-0.0209031 -0.00122053 0.462997
-0.00913062 -0.00189219 0.46301
0.0140645 -0.00361968 0.463081
0.0180744 0.039831 0.460127
0.0182211 -0.00329957 0.463047
0.0150543 -0.00382956 0.463087
0.00709038 -0.00317395 0.463054
-0.0268983 0.0419563 0.460058
0.0220134 0.0229163 0.461253
-0.0288794 0.0130938 0.462013
-0.000568102 -0.00265982 0.463022
0.0185441 0.039229 0.460148
-0.0138785 -0.00174019 0.462977
-0.0264023 0.0466542 0.459719
0.00107082 -0.00281957 0.463015
0.00794676 -0.00325943 0.463031
0.0169802 0.040817 0.460024
-0.0228099 -0.00113047 0.462932
0.0209393 0.0090361 0.462159
-0.00666009 0.0218453 0.461342
0.00219014 -0.00289945 0.462999
0.0139636 0.0445146 0.459758
0.01212 -0.00366715 0.463021
-0.0290362 0.0108191 0.462114
-0.00497014 0.0448722 0.459761
0.00914527 -0.00337921 0.463001
0.020343 0.0373123 0.460223
0.0220476 -0.0071001 0.463226
-0.0316336 -0.00361976 0.463091
0.0220335 0.0238918 0.46112
0.0190645 0.0387604 0.46011
-0.0280532 0.0248896 0.461134
-0.029179 0.0089572 0.462208
0.00302916 -0.0029471 0.462951
-0.0258336 -0.000890598 0.462865
-0.0269606 0.0399004 0.460103
0.0171282 -0.00396153 0.462989
-0.028159 0.0238688 0.461189
0.0217825 0.018981 0.461424
0.0221216 0.0249347 0.46102
0.0217075 0.0423784 0.459836
0.0224577 0.0314711 0.460566
-0.00690091 0.0189827 0.461465
-0.00714357 0.0155244 0.461698
-0.00545133 0.0379995 0.460172
0.0188945 -0.00289885 0.462894
-0.00521073 0.0408425 0.459975
-0.0276584 -0.00038108 0.462807
-0.026861 -0.000820606 0.462835
-0.00787293 0.0048889 0.462395
-0.0271843 0.0379217 0.460193
0.000151314 -0.00265903 0.462885
-0.00199959 0.0214824 0.461245
-0.00617484 0.0281451 0.460798
-0.00496965 0.0440343 0.459716
-0.0271125 0.0389864 0.460098
0.021543 0.0181439 0.461414
0.0219064 0.0218879 0.461158
0.0209594 0.00801466 0.462099
-0.00738573 0.0119418 0.461885
0.0178555 -0.00369812 0.462895
-0.0283977 0.0227935 0.461185
-0.0157917 -0.00169965 0.462817
0.022204 0.0349963 0.460254
0.0208477 0.0367252 0.460136
-0.0296968 -0.00145991 0.462815
-0.0269937 0.0408565 0.459943
-0.0328183 -0.00241924 0.462883
0.0215456 0.0169509 0.461469
0.0202615 -0.00689802 0.46308
0.011181 -0.00361804 0.462872
0.0224548 0.0309899 0.460506
0.0102217 -0.00361799 0.462865
0.0131788 -0.00369787 0.462862
0.0199058 0.0378214 0.460037
0.0209294 0.00694463 0.462118
0.0218186 0.0356869 0.460168
-0.00746681 0.0099493 0.461962
-0.0275335 -0.000740523 0.462721
0.0210447 -0.00726567 0.46307
-0.0321 -0.00337847 0.462899
0.0204761 0.000857157 0.462511
-0.0272095 0.0371964 0.460138
0.0171635 0.0475684 0.459349
0.0251682 0.0383392 0.459958
0.0123276 0.0463084 0.459439
-0.00227796 0.02116 0.461162
-0.0229045 0.0491812 0.4593
-0.0218578 0.0491099 0.459301
-0.00641566 0.0242146 0.46095
-0.0324021 0.033366 0.460377
-0.00762765 0.00799674 0.462046
-0.0289836 0.0518249 0.459114
0.020906 0.00591539 0.462127
-0.00984282 0.0482783 0.459312
-0.0316501 0.0409501 0.459846
0.0214647 0.0157947 0.461445
-0.0268412 0.05194 0.459081
0.0224536 0.0298751 0.460481
-0.0189417 0.0489279 0.459268
-0.0299343 -0.00265843 0.462781
-0.0129354 0.0482765 0.459294
-0.0061734 0.0274226 0.46069
0.0219025 0.0208945 0.461077
-0.0295025 0.00689076 0.46212
0.0227798 0.0338972 0.460189
-0.00424841 0.0525229 0.458978
-0.0499654 0.0767507 0.457422
0.0218478 0.0200036 0.461123
-0.028439 0.0219523 0.461081
-0.00689836 0.0180198 0.461294
0.00914048 0.0468164 0.459309
0.0198135 -0.00637571 0.462888
-0.0077072 0.00699895 0.462027
-0.00520861 0.0399923 0.459789
-0.0274799 0.0359339 0.460105
-0.00677683 0.0199252 0.461149
-0.0287 0.0190931 0.461246
-0.00544912 0.0370309 0.459985
-0.0108324 0.0482701 0.459233
-0.00896116 0.0480805 0.459241
-0.00738368 0.010862 0.461757
-0.0295735 0.0058038 0.46214
0.0014603 0.0397535 0.459781
-0.0274931 0.0366778 0.460041
-0.0158665 0.0486635 0.459206
-0.0285292 0.0208958 0.461106
0.021498 0.0139869 0.461474
-0.00552923 0.035923 0.460038
-0.026141 0.0471484 0.459314
0.00312374 0.0473198 0.459245
0.00961842 -0.00361655 0.46268
0.022813 0.0330447 0.460172
0.0207565 0.00387738 0.462151
0.0214628 0.0148373 0.461404
0.0217713 0.0180156 0.461188
-0.0148748 0.048661 0.459181
-0.0325659 -0.00289767 0.462704
-0.0030734 0.0207566 0.461046
-0.0294628 0.00781576 0.461966
-0.029395 0.00966776 0.46184
0.0208893 0.00497078 0.462061
-0.00797706 0.0480545 0.459195
-0.0293971 0.00907033 0.461874
-0.023753 0.049212 0.459144
-0.0169455 0.0487087 0.459164
-0.0283785 0.0237331 0.460874
0.00794027 -0.00361635 0.462655
0.0101586 0.0468088 0.459235
-0.0257806 0.0475582 0.459251
-0.00670321 0.0208033 0.46102
-0.0118616 0.0482634 0.45917
-0.0208454 0.0491048 0.45913
0.00818706 0.0469769 0.459216
-0.0296189 0.00490327 0.462136
-0.013823 0.0486174 0.459144
0.0224493 0.0289551 0.460394
-0.017925 0.0488529 0.459122
-0.00448486 0.0525076 0.458845
-0.0181774 -0.00145897 0.462519
0.0257543 0.0376106 0.459789
-0.0326476 0.0290796 0.460477
0.0213291 0.036142 0.459894
-0.00496712 0.0429409 0.459482
-0.0274949 0.0348531 0.46007
0.027189 0.0360699 0.459885
0.025993 0.0373731 0.459798
0.0227826 0.0319736 0.460168
-0.00791628 0.00385672 0.462128
-0.027587 0.0330458 0.460188
0.0135329 0.045242 0.459284
-0.0286299 0.0198983 0.461078
-0.00805013 0.00201379 0.46225
-0.0289795 0.049836 0.459051
-0.00140083 0.0233707 0.460788
0.0110916 0.0467775 0.459176
0.00698046 -0.00337614 0.46258
0.00419356 0.0471918 0.459158
-0.029384 0.0109795 0.461668
0.0159623 0.0487233 0.459021
0.0152954 0.0431195 0.459394
0.012924 0.0459359 0.459206
3.13421e-05 0.0202754 0.460965
-0.0269797 0.0438863 0.459414
-0.0128577 0.048538 0.459068
-0.000444123 0.0522637 0.45879
0.000508383 0.0271719 0.460485
0.000269967 0.0240817 0.460691
0.00514438 0.0471865 0.459107
0.0120814 0.0466341 0.459131
-0.00575545 0.0479365 0.459076
-0.0056274 0.0350622 0.459947
-0.0273718 0.0347686 0.460003
-0.0329048 0.0240841 0.460737
-0.00584843 0.0318798 0.460152
0.0226643 0.0345239 0.459918
-0.0292083 0.0508508 0.458908
0.0163089 0.042196 0.459406
-0.0341798 0.00763425 0.46184
0.00841685 -0.00337559 0.462504
-0.00222642 0.0522597 0.458755
-0.0316309 0.0410839 0.459567
-0.00695382 0.0481013 0.459041
-0.0297687 0.00392804 0.462073
0.0208308 0.0019203 0.462113
-0.00738176 0.00966353 0.461637
-0.0068961 0.0169391 0.461143
-0.0118574 0.0484842 0.459009
-0.00520015 0.0477742 0.459042
-0.00859103 -0.00133872 0.462369
0.00240748 0.0520195 0.458733
-0.0287668 0.0180628 0.461085
0.00264507 0.0520187 0.458726
0.0208744 0.00293748 0.462009
-0.0212059 -0.0013787 0.46238
-0.0341793 0.00703605 0.461834
0.0228686 0.0309413 0.460107
-0.00792707 0.00297047 0.462057
-0.00713769 0.0138388 0.461319
0.0256271 0.0059589 0.461788
-0.0276572 0.0339101 0.459995
-0.0218245 -0.00139867 0.462374
0.000746474 0.0298573 0.46021
-0.00496333 0.0458809 0.459132
-0.0230091 -0.00126679 0.462357
-0.031623 0.0418671 0.459452
0.0100116 0.0513066 0.458733
0.00223078 0.0469421 0.459042
0.0239526 0.0396096 0.459494
0.0208096 0.000984048 0.462115
0.00601527 0.0471371 0.459011
0.00602 -0.00331508 0.462423
0.0258563 0.00810868 0.46161
0.00419948 -0.00332707 0.462424
-0.00116553 0.00105574 0.462134
-0.0289234 0.0169905 0.461104
-0.0268881 0.0449567 0.459205
-0.00699839 0.0159149 0.461132
0.0205034 -0.00109891 0.462227
-0.008148 0.000856365 0.462146
-0.0301413 -0.000500348 0.462278
0.025623 0.00619712 0.461714
3.13281e-05 0.0209824 0.46076
-0.0267244 0.0459984 0.459116
-0.0203242 -0.00121881 0.462301
-0.0297105 0.00201331 0.462097
-0.0198888 0.0491367 0.458885
0.00697352 0.0471011 0.45897
-0.0283643 0.0233633 0.460643
0.00145925 0.0400821 0.459454
0.0164326 0.0482322 0.458873
0.0138127 0.0508279 0.458701
-0.0281364 0.0289299 0.460262
-0.0266491 0.046729 0.45905
0.0128617 0.0510633 0.458681
0.0214872 0.0129764 0.461243
-0.000207473 0.0166961 0.461031
-0.00824571 -0.000158182 0.462186
0.022441 0.0279908 0.460222
0.00169627 0.0438646 0.459187
-0.00504107 0.0470154 0.458983
-0.029264 0.0120655 0.461393
0.0218291 0.0169325 0.460967
0.000508131 0.0279928 0.460256
-0.0292544 0.0102585 0.461509
-0.029884 0.00297018 0.462003
-0.0071371 0.0130013 0.46128
-0.00721425 0.0527161 0.45859
0.0145391 0.0440968 0.459128
-0.0138584 -0.00207025 0.462308
-0.0292497 0.011213 0.461436
-0.00450279 0.0216947 0.460679
-0.0279472 0.0299834 0.460162
-0.0270674 0.048788 0.458884
-0.0056865 0.032975 0.459913
0.00183864 0.0449254 0.459087
-0.00592649 0.0308399 0.460048
0.0178613 0.0465748 0.458937
-0.0303891 -0.00337487 0.462406
-0.0284921 0.0489437 0.458858
0.00518059 -0.00337434 0.462334
-0.0313574 0.0461105 0.459048
-0.0246895 0.0484694 0.458868
0.0140269 0.0447851 0.459044
-0.0056855 0.0336838 0.459832
-0.0326379 0.0269248 0.460339
-0.00640944 0.023714 0.460503
-0.00995757 -0.00231339 0.462271
-0.0101891 0.0484656 0.458832
-0.0282764 0.0242311 0.460507
-0.0279365 0.0487836 0.458843
-0.0289277 0.0159211 0.461067
-0.00705463 0.0149467 0.461091
-0.00737952 0.00894347 0.461497
0.00193329 0.0457476 0.458986
0.0205203 -0.000308627 0.462069
-0.0290509 0.0148782 0.461127
0.0218197 0.0160364 0.460948
-0.0108236 -0.00225622 0.462247
-0.027344 0.0381851 0.459537
-0.0249889 -0.00133823 0.462208
0.0258444 0.00918049 0.461398
0.0121426 -0.00398999 0.462316
-0.03263 0.0280309 0.460227
-0.0278452 0.0319294 0.459953
-0.0340562 0.00500204 0.461787
-0.0238509 -0.00136812 0.462196
0.0258411 0.00989617 0.461338
0.000111283 -0.00305444 0.462255
-0.0107027 0.048539 0.458777
0.0224387 0.0269152 0.460176
-0.0282353 0.0268942 0.46027
0.0227464 0.0298817 0.459972
0.0172577 0.0411125 0.459221
0.000745941 0.0317816 0.459881
-0.0291117 0.013953 0.461144
-0.0288686 0.000846247 0.462031
-0.0313629 0.0437402 0.459129
-0.0311083 0.0472823 0.458882
-0.0177752 -0.00184687 0.462182
-0.0272619 0.0409353 0.459299
0.00119439 -0.00313408 0.462228
0.0202292 -0.00202622 0.462117
-0.0159297 -0.00201648 0.462181
-0.0322976 -0.00325429 0.462294
-0.0282159 0.0279875 0.460169
0.0150114 0.0436287 0.459028
0.0227798 -0.00433164 0.462261
0.0256044 0.00858263 0.461379
-0.0273374 0.0388898 0.459426
-0.00598711 0.0279847 0.460124
-0.0258467 -0.0011943 0.462132
-0.0283474 0.0248994 0.460368
-0.00305621 0.0522267 0.458465
0.017224 -0.00428365 0.462252
0.0208506 -0.000101064 0.461962
-0.00140495 -0.00217592 0.462143
0.000746003 0.030593 0.459919
0.00501864 0.0517531 0.458478
-0.00163125 0.0522258 0.458457
0.0232609 -0.00528996 0.462304
0.0202411 0.0437269 0.45899
0.00240765 0.047508 0.458766
-0.0282947 0.0258727 0.460287
-0.00640855 0.0229952 0.460439
-0.0270819 0.0428783 0.45913
0.0188256 0.0395897 0.459263
-0.0279633 0.0309514 0.459935
0.026067 0.0119216 0.461107
-0.00544418 0.03545 0.459569
0.0210349 0.0428577 0.459017
-0.0083457 -0.00109845 0.462047
-0.00828505 0.0484505 0.45869
0.0180561 -0.00392049 0.462186
-0.0188794 -0.00181668 0.462108
-0.0168274 -0.00179957 0.462103
-0.00879898 -0.00214914 0.46211
0.0214085 0.0119809 0.461091
0.0140375 -0.00409144 0.462192
0.0159282 0.0427442 0.459015
-0.0128352 -0.00223557 0.46211
-0.0292289 0.0129965 0.461108
-0.0117664 -0.00227834 0.462106
-0.00604666 0.0269118 0.460118
0.00300137 0.0475019 0.458707
0.00201499 -0.00327029 0.462142
-0.0061676 0.0247743 0.460258
0.0267423 0.0218006 0.460396
0.0211092 -0.00744656 0.462384
0.0214406 0.0108773 0.461141
0.0151622 -0.00425889 0.462171
-0.0301343 -0.00301374 0.462171
0.00442686 0.0474995 0.458683
-0.00737739 0.00822387 0.461364
-0.000446217 0.0140666 0.460952
-0.0280471 -0.000220765 0.461969
-0.0310987 0.0475053 0.45874
-0.00592524 0.0288876 0.459951
-0.0272793 0.0398502 0.459249
-0.0269605 -0.00124461 0.46203
-0.00483616 0.0524509 0.458349
-0.0313566 0.0430182 0.459037
0.0194012 0.0447793 0.458809
-0.0217484 -0.00169678 0.462033
-0.0049624 0.0419489 0.459045
0.00322308 -0.00333267 0.462096
0.0255997 0.00786408 0.461295
0.013078 -0.00409092 0.462126
-0.0294701 0.0115644 0.461146
0.001221 0.0370993 0.459358
0.0161663 -0.00433033 0.462132
0.0228999 0.0289218 0.459864
-0.000846253 -0.00301325 0.46207
-0.00592394 0.0298738 0.459851
-0.0228914 0.0493871 0.458561
-0.014927 -0.00205571 0.462027
0.0258268 0.0107267 0.461084
0.0182113 0.0401442 0.459106
0.0218488 0.0148737 0.460806
-0.00477056 0.0439544 0.458883
-0.0329944 -0.00121804 0.461992
-0.00616548 0.0259575 0.460099
0.0218752 0.0139444 0.460859
0.0224327 0.0258356 0.460052
0.0170069 0.0418001 0.458979
-0.0198719 -0.00177637 0.461996
0.00632689 0.0472559 0.458625
-0.00753828 0.00575548 0.461457
-0.0295129 0.00105511 0.461815
-0.00748002 0.0069095 0.461374
-0.00140455 -0.002654 0.462009
0.0219031 0.0418205 0.458942
-0.0295096 0.0107678 0.46114
0.023254 -0.00588691 0.462167
0.0218168 0.01305 0.460887
-0.0330751 -0.00201579 0.462005
-0.00550252 0.0346687 0.459468
0.00517731 -0.00361154 0.46204
-0.00472148 0.0453668 0.458741
0.019032 -0.00298867 0.461961
0.0214436 0.0363798 0.459285
-0.029596 0.00881909 0.461246
-0.0328122 -0.00297338 0.462048
0.0223854 0.0248113 0.460061
0.00323563 0.051848 0.458266
0.0254554 0.00676479 0.461276
0.00918592 -0.0038706 0.462026
0.00800923 -0.00382408 0.462023
-0.00713255 0.0119185 0.460986
-0.0014036 0.00117444 0.4617
0.0214073 0.00989044 0.461065
-0.0285759 0.0239372 0.460207
0.0201892 0.037946 0.459165
0.0223193 0.022982 0.460174
0.0101517 -0.00395324 0.46202
-0.0229399 -0.0016964 0.461929
-0.0286754 0.000217828 0.46181
0.00193023 0.0519645 0.458247
0.0217622 0.010844 0.460993
0.0217587 0.0119167 0.46092
-0.0323692 0.0283291 0.459909
-0.00761777 0.00487888 0.461448
0.0233327 0.0401025 0.459005
-0.0011641 0.00284779 0.461567
0.00145777 0.0408736 0.458987
-0.032365 0.0290401 0.45985
-0.0276623 -0.000978407 0.461872
0.00705152 -0.00377067 0.461994
-0.00502227 0.0396331 0.459078
-0.00640633 0.0219142 0.46028
0.01116 -0.00404195 0.462004
-0.0257287 0.0512608 0.458323
-0.0291713 0.0512611 0.458326
0.0247633 0.0386225 0.459078
-0.027207 0.0419908 0.458947
-0.00786561 0.0483687 0.458477
-0.00116372 0.004759 0.461416
0.0192924 0.0391064 0.45905
-0.0295396 -0.00107403 0.461856
0.000507617 0.02856 0.459791
-0.0279937 0.048666 0.458481
0.0217629 0.00988922 0.46101
-0.0325018 -0.000260609 0.461793
-0.0295387 0.00991495 0.461096
0.0246819 -0.00504727 0.462007
-0.0207838 -0.00181577 0.461872
-0.00885074 0.0483306 0.458453
0.0223064 0.0219625 0.46018
0.0178599 0.0409452 0.458902
-0.0296719 0.0448898 0.458724
-0.0326993 0.0248444 0.460085
0.0228422 0.0279763 0.459768
0.0213669 0.00894807 0.461052
-0.00834201 -0.00193527 0.461843
-0.0291745 0.0498421 0.458376
-0.00509865 0.0388769 0.459073
0.0223837 0.0239994 0.460027
-0.0349023 -0.00217485 0.461905
-0.00616522 0.0239306 0.46008
0.0247453 0.0427532 0.458746
0.000174339 0.0238581 0.460062
-0.0326121 0.0260099 0.459975
0.0208389 -0.000978064 0.461701
0.0196588 -0.0064841 0.462072
-0.00091837 0.0520705 0.458135
0.0213317 0.00589642 0.461219
-0.031019 -0.00385024 0.461976
-0.0296804 0.00807108 0.461166
0.00418437 0.0517154 0.458144
-0.00116336 0.00559387 0.461273
0.0242223 0.0389696 0.458965
-0.0313495 0.0409876 0.458932
-0.019794 0.0493636 0.458343
-0.0208623 0.0493633 0.45834
0.0199787 -0.00712256 0.462087
3.0922e-05 0.0520685 0.458117
-0.0259467 0.0519344 0.458172
-0.0367696 0.00571384 0.461316
-0.0315966 0.0387406 0.459068
-0.0098968 -0.00265296 0.461829
0.0221967 -0.00729798 0.462083
-0.00552084 0.0339651 0.45934
0.00621204 -0.00368988 0.461862
-0.0219298 0.0493614 0.458322
-0.0240091 -0.00169586 0.461783
-0.0336217 0.0138217 0.460749
0.0213694 0.00701168 0.461107
-0.0309598 0.0477714 0.458442
-0.00140359 -0.00109761 0.461693
-0.00761635 0.003922 0.461362
0.021124 0.037028 0.459064
0.022778 0.0260004 0.459806
0.0228141 0.0270085 0.459735
0.0227098 0.0249442 0.459874
0.000745304 0.0311594 0.459489
0.0222497 0.019837 0.460213
-0.0106136 -0.00265275 0.461793
-0.00578574 0.0482942 0.458334
0.0260932 0.0368839 0.459045
0.00145689 0.0425123 0.45871
-0.00496001 0.040978 0.458824
-0.00737279 0.00774104 0.461077
0.0222506 0.0412093 0.458754
0.0196441 -0.00265237 0.461726
-0.00491413 0.0220051 0.460103
-0.0269972 -0.00169573 0.461749
-0.00917804 -0.00265266 0.461778
0.0213644 0.00796529 0.461
-0.00397347 0.020694 0.460182
-0.00681418 0.0483316 0.458314
-0.0240646 0.0492386 0.458284
-0.0319244 -0.00395596 0.4619
-0.0297948 0.00697452 0.461153
-0.00637503 0.0524145 0.458031
-0.0336212 0.0131055 0.460742
0.0213204 0.00480981 0.461196
0.00421769 -0.00360964 0.461797
-0.0338164 0.0080312 0.46108
-0.0337163 0.00984828 0.460955
-0.00175564 0.0239233 0.459941
0.0249049 -0.00289142 0.461705
0.00916666 0.0512322 0.458067
-0.0288379 0.0230944 0.460044
-0.00512032 0.0379809 0.458988
-0.00795611 0.0526476 0.457995
0.00330063 -0.00372915 0.461786
0.000150401 0.0245157 0.459879
0.0222769 -0.0039283 0.461763
0.0170165 -0.00456669 0.461816
-0.0331 0.021669 0.460133
0.0252705 0.0377782 0.458932
-0.00116003 0.0233283 0.459953
0.0121721 0.050915 0.458059
-0.00712977 0.0108397 0.460807
-0.033689 -0.00121715 0.461672
0.0222014 0.0189306 0.460199
-0.0064041 0.0208341 0.460119
-0.000207166 0.0172674 0.460348
0.0191729 -0.00614665 0.461896
-0.0308239 0.0499997 0.458188
0.0213178 -0.00360899 0.461713
0.015696 0.0486347 0.458186
-0.00652501 0.0189322 0.460238
-0.000207139 0.0179806 0.46029
0.00145675 0.0419142 0.458666
0.0227401 0.0239183 0.459844
-0.0328529 0.0230135 0.460009
0.0221279 0.0359518 0.459029
-0.0277826 0.0389657 0.458919
0.00608127 0.0514628 0.458007
-0.0326831 -0.00378923 0.461821
-0.0245998 -0.00145621 0.461644
-0.0313349 0.041919 0.458719
-0.0179682 0.04919 0.4582
-0.0157804 0.049002 0.458207
3.12723e-05 0.0229702 0.459939
0.0217549 0.00905004 0.46084
0.00812887 0.0472725 0.458276
-0.00616343 0.0229705 0.459946
-0.0272901 0.04298 0.45863
-0.00519963 0.0369513 0.458996
0.00121983 0.037896 0.458919
-0.0287531 0.0247531 0.459865
-0.0285501 0.0257813 0.459793
0.00230361 -0.00360908 0.461725
-0.0285454 0.0268884 0.459717
-0.0327464 -0.00480648 0.46187
0.0222025 0.0179779 0.460223
0.000745244 0.0299669 0.459451
-0.0267509 -0.00145615 0.461625
0.0253979 0.00485143 0.4611
-0.0294614 0.0488163 0.458222
0.0223116 0.0208889 0.460014
-0.00199444 0.0208908 0.460056
0.0143861 0.0501618 0.458043
0.0212444 0.00387252 0.46116
3.1275e-05 0.0218999 0.459979
-0.0121647 -0.00241278 0.461647
0.0133527 0.046037 0.458317
-0.00905574 -0.00241274 0.461639
-0.0288462 0.0219023 0.460029
-0.0336238 0.0109583 0.460778
-0.0290523 0.00069581 0.461464
-0.029091 0.0518765 0.457995
-0.0187857 0.0492415 0.458154
0.0224617 0.0352493 0.459023
-0.0289435 0.0489638 0.45819
0.000269396 0.0255787 0.459717
-0.00764239 0.00191694 0.461327
0.0198582 0.0387841 0.458779
-0.0266311 0.0487145 0.458193
-0.0278936 0.0399646 0.458788
-0.00294755 0.0205334 0.460056
-0.0049451 0.0228755 0.459898
0.0227079 0.0230365 0.459835
-0.02938 -0.0016952 0.461605
-0.0279591 0.0350307 0.459115
-0.0262702 -0.00145601 0.461582
0.0231197 0.034885 0.459027
-0.0338707 0.00893175 0.460891
-0.00974656 0.0488198 0.458143
-0.00766218 0.00294136 0.461242
0.0268065 0.0359071 0.458944
-0.0272781 0.0449798 0.458429
0.0142767 0.0450898 0.458341
-0.0278609 0.0379343 0.458904
-0.0280756 0.0339329 0.459175
-0.0336027 0.0146488 0.46049
-0.0282937 0.0291367 0.459497
0.0233396 0.0329198 0.459143
-0.0226879 -0.00313035 0.46167
0.0209167 0.0377687 0.458817
0.0232993 0.0338932 0.459069
-0.0279351 0.035993 0.459022
-0.00640337 0.0198784 0.460067
-0.00223119 0.0245084 0.459743
-0.0139105 0.0490018 0.458106
0.00721918 0.0473453 0.458178
-0.0309587 0.0447419 0.458425
-0.0338086 0.00588974 0.461059
-0.00512002 0.0360766 0.45896
0.0140271 0.0505067 0.457943
-0.0332053 -0.00217343 0.461597
-0.0278919 0.0369144 0.45894
-0.031347 0.0376563 0.458895
-8.77958e-05 0.0208277 0.459974
-0.0271531 0.0459191 0.458325
0.000868293 -0.00336905 0.461609
-0.0292611 0.0158768 0.460362
-0.0300384 0.00483551 0.46111
-0.0290708 0.0189179 0.460154
0.021188 -0.00777996 0.461865
-0.0289972 0.0198555 0.460087
-0.0313412 0.0387189 0.458811
-0.00459803 0.0459139 0.458272
-0.0129103 0.0489697 0.458076
-0.0336915 -0.00408727 0.461707
0.0227074 0.0220831 0.459825
-0.0301873 0.00392012 0.461154
-0.0329179 0.0197601 0.460085
0.00121702 0.0519186 0.457843
-0.0104937 -0.00588195 0.461779
-0.0268628 0.0529127 0.457826
0.0233433 0.0309744 0.459217
-0.00553511 0.031949 0.459205
-0.0128792 -0.00241224 0.461544
-0.00115956 0.0235569 0.459764
-0.0301912 0.00296507 0.461212
-0.0169022 0.0491176 0.458062
0.00086357 0.0341016 0.459043
-0.0293028 0.0150034 0.460392
0.00916804 0.0472057 0.458139
0.0198804 0.0437611 0.458351
-0.029968 0.00606804 0.460995
-0.0289671 0.0209234 0.459986
0.00121935 0.0384752 0.458739
0.0222208 0.0169892 0.460153
0.0233176 0.0319787 0.459136
-0.0139548 -0.00241219 0.461534
-0.0148309 0.0490944 0.458048
-0.0260557 0.0528638 0.457813
-0.031739 0.0379286 0.458834
-0.00712755 0.0102397 0.460663
-0.00506787 0.0520357 0.457828
0.0160528 -0.00456476 0.46162
-0.0272775 0.0439101 0.45842
-0.000686215 -0.00636029 0.461773
-0.0279155 -0.00117311 0.461472
-0.0281884 -0.00408695 0.46167
0.0180917 0.0458098 0.458202
-0.0330298 0.016827 0.460261
0.0150794 0.0489869 0.457992
0.000804183 0.0330354 0.459098
-0.000923251 0.0095244 0.460691
-0.0288244 0.0480014 0.458138
-0.0291695 0.0179759 0.460172
-0.0105223 0.0521532 0.45782
0.0134717 0.0506574 0.457876
-0.0293816 0.051451 0.457903
0.0217502 0.00809341 0.460741
0.000270438 -0.00336867 0.461557
0.0101491 0.0472243 0.458111
0.0151707 0.0440824 0.458312
0.0208324 0.042626 0.4584
-0.0331475 -0.00102541 0.461457
0.010111 0.0509123 0.457857
-0.0297037 0.0500374 0.457991
-0.0267678 0.0523908 0.457824
-0.00411891 0.0521506 0.457797
-0.023883 -0.00432598 0.461657
0.00169286 0.045082 0.458262
-0.0328361 0.0236766 0.459776
-0.0055724 0.0309569 0.459232
-0.0280556 0.0328873 0.459143
-0.00652322 0.0179736 0.460112
0.0249003 -0.00516255 0.461619
-0.00583809 0.0522387 0.45779
0.0174863 -0.00456445 0.461589
0.0214075 0.00296415 0.461072
0.0161769 0.0430737 0.458363
-0.000805456 -0.00336854 0.461539
