ply
format ascii 1.0
comment Created by Open3D
element vertex 1899
property double x
property double y
property double z
end_header
22.439 -1.59004 501.283
-7.68862 -33.8908 503.153
8.98059 -33.8942 503.204
-12.362 -24.4861 502.562
6.34997 -0.552002 501.158
2.718 -0.0331803 501.113
17.766 -1.07094 501.215
3.23673 -0.0331798 501.106
18.805 -1.58993 501.248
21.4798 -32.3265 503.127
-0.396266 -34.4139 503.185
21.4783 -31.8034 503.093
2.19916 -0.0331792 501.098
-11.8345 -19.7916 502.256
-5.60486 -33.8895 503.133
17.2468 -1.07092 501.204
13.6134 -0.552001 501.157
15.1719 -1.58985 501.224
-11.8454 -27.6163 502.718
21.9179 -1.58989 501.235
-7.13728 0.485497 501.015
-8.69315 0.485489 501.007
23.51 -14.0646 501.991
6.86865 -1.0708 501.147
-10.7676 0.485479 500.996
-11.8428 -26.0493 502.608
23.9993 -3.66636 501.356
-11.8517 -32.3174 502.986
-10.7728 -3.66553 501.242
-5.06244 0.485482 500.999
-11.832 -18.7477 502.149
-11.8417 -25.5265 502.56
-6.0993 1.00406 500.963
16.2084 -1.58972 501.184
7.38663 -0.551928 501.091
-11.8213 -11.4595 501.694
-0.396195 -33.8869 503.095
23.0033 -19.2723 502.275
-11.8265 -15.1016 501.912
-10.773 -4.18449 501.248
22.9553 -2.10875 501.226
23.474 -2.10873 501.222
1.16618 -33.3633 503.054
-3.00035 -34.4081 503.101
14.1313 -1.07075 501.124
-9.24934 -33.8837 503.048
-11.8335 -20.3097 502.211
-0.916971 -33.8851 503.069
22.4835 -19.7924 502.277
-10.771 -3.14609 501.157
1.67999 0.485458 500.974
21.3972 -2.10861 501.193
-10.773 -4.70342 501.25
23.9992 -4.7044 501.354
-11.83 -18.2248 502.064
23.505 -13.5421 501.884
16.7256 -1.58957 501.135
18.8772 -34.9339 503.172
-11.2959 -7.81966 501.427
-11.2966 -8.33924 501.456
-11.8387 -24.4797 502.431
-10.7685 -1.58926 501.038
22.4893 -22.3981 502.407
-8.20718 -33.8812 503.01
21.4678 -29.7056 502.847
-9.76925 -33.8807 503.003
12.5729 -0.551875 501.043
4.27321 -0.0331716 500.983
-11.2968 -8.85854 501.466
11.0625 -34.9303 503.121
23.5007 -12.5007 501.793
9.49915 -34.4066 503.078
-1.4376 -33.8811 503.009
-9.72817 0.485374 500.888
-10.7672 -1.07044 500.98
-6.64467 -33.8797 502.988
-0.394503 -0.0331692 500.946
7.90395 -0.551829 501.001
-11.8363 -23.4347 502.33
-11.8183 -10.9373 501.567
24.001 -6.26193 501.392
-8.72719 -33.8784 502.968
23.4772 -4.70379 501.29
22.4717 -16.6638 502.013
-2.98733 -0.0331672 500.917
4.79142 -0.0331686 500.938
23.4915 -9.8994 501.596
-0.913047 -0.0331672 500.916
23.4868 -8.33991 501.496
-10.7679 -2.10783 501.009
-11.8446 -29.696 502.684
2.7171 -0.55177 500.947
23.4967 -11.9791 501.707
23.4952 -11.459 501.675
23.4877 -8.85941 501.515
-5.57948 0.485342 500.855
-10.7682 -2.62659 501.027
-10.8077 -32.8302 502.864
14.185 -34.4032 503.029
21.4657 -30.2232 502.797
10.0193 -34.9252 503.047
21.9113 -2.10815 501.084
22.4811 -20.8302 502.225
9.97757 -0.551773 500.95
21.9874 -30.7454 502.824
-10.7712 -5.22144 501.164
-11.8468 -31.7834 502.775
23.4804 -6.78055 501.359
-11.8444 -30.2157 502.672
20.9575 -35.4491 503.092
-6.61601 0.485307 500.818
22.9915 -17.7033 502.016
22.9928 -18.2241 502.045
17.31 -34.9247 503.04
21.3924 -2.62687 501.079
22.4824 -21.8713 502.253
11.014 -0.551734 500.915
23.9876 -3.14581 501.112
-11.8229 -15.6165 501.76
2.19822 -0.5517 500.883
10.4959 -1.07035 500.938
-1.43139 -0.033162 500.837
22.4278 -2.10794 501.034
20.3525 -2.10788 501.021
21.9766 -27.6086 502.578
-9.20745 0.485259 500.769
-2.46827 -0.0331607 500.817
5.82783 -0.551687 500.872
-1.94977 -0.0331601 500.809
6.34667 -1.07026 500.897
-10.7704 -5.73984 501.127
-10.7711 -6.25902 501.159
3.75338 -0.0331611 500.824
-11.8324 -22.9072 502.165
23.4847 -9.3774 501.451
-11.8339 -23.9498 502.227
-4.56058 -33.8705 502.851
-11.3003 -14.0543 501.623
-11.2988 -13.014 501.555
-5.08106 -33.8699 502.842
3.235 -0.551651 500.839
-11.298 -12.4938 501.519
9.45716 -0.551668 500.854
11.532 -1.07025 500.888
-7.65213 -0.0331572 500.765
10.538 -34.9181 502.944
-4.02332 -0.0331578 500.775
-8.68884 -0.0331567 500.758
-11.2934 -9.37485 501.314
-2.4782 -33.8692 502.833
21.9658 -24.4748 502.33
13.1403 -34.3947 502.905
1.67932 -0.0331579 500.776
13.0864 -0.551655 500.842
14.6427 -1.07021 500.871
14.7029 -34.9172 502.931
16.7857 -34.9175 502.936
22.4867 -24.9958 502.35
22.481 -22.9098 502.222
8.93799 -0.551627 500.817
21.9069 -2.62636 500.984
-11.3057 -18.7369 501.86
21.4571 -29.1705 502.596
23.4701 -5.22118 501.139
-11.828 -20.82 501.98
8.45289 -33.3466 502.802
23.9812 -2.62634 500.979
8.41921 -0.551606 500.799
-11.3025 -16.654 501.718
20.8675 -2.10751 500.932
-11.3074 -20.2986 501.935
12.0492 -1.07013 500.833
-10.2422 0.48516 500.667
-11.298 -13.5322 501.517
-4.54121 -0.033154 500.716
18.2726 -1.58876 500.879
-11.2957 -11.9722 501.419
0.642458 -0.551564 500.76
9.49419 -33.8681 502.816
23.4837 -10.4152 501.429
21.4652 -32.825 502.785
17.2353 -1.58873 500.87
23.491 -13.0147 501.585
-10.7744 -10.4128 501.314
-3.50441 -0.0331532 500.705
19.3888 -35.4377 502.93
-6.09558 0.485151 500.657
-11.3037 -18.2142 501.774
0.124554 -34.387 502.792
20.9421 -32.3005 502.723
6.864 -1.58853 500.808
13.6034 -1.07004 500.79
-11.8278 -21.859 501.97
-8.16866 -0.0331495 500.649
19.9079 -35.435 502.892
-11.3159 -27.5941 502.313
21.4574 -30.7318 502.602
0.124536 -33.8616 502.719
12.5658 -1.06997 500.758
13.6577 -34.3867 502.787
23.4813 -10.9332 501.378
22.4685 -20.2989 501.943
12.0957 -34.3853 502.767
-11.293 -11.4504 501.298
11.01 -1.06991 500.733
20.4269 -35.4323 502.853
18.342 -34.3862 502.78
10.5339 -34.3842 502.75
23.4653 -5.7388 501.037
-11.2911 -10.4107 501.213
-0.912553 -0.551437 500.644
15.1586 -2.10689 500.786
20.9453 -34.9081 502.801
-11.8225 -19.252 501.746
17.7499 -1.58838 500.76
-5.59905 -33.334 502.611
1.67882 -0.551415 500.625
20.9415 -33.8608 502.708
16.713 -2.10678 500.759
-11.2896 -9.8905 501.145
-11.2996 -17.1689 501.588
7.38034 -1.06977 500.665
-5.05796 -0.0331434 500.557
23.4587 -4.18155 500.896
-11.2907 -10.9292 501.195
-4.03809 -33.8544 502.613
18.2679 -2.10673 500.748
-11.3142 -28.1098 502.238
-11.8295 -24.9805 502.042
19.823 -2.10673 500.747
20.9338 -31.2472 502.524
-11.3162 -29.6749 502.327
-10.7662 -6.77479 500.933
4.7882 -0.55139 500.602
15.2172 -34.9026 502.722
-6.11874 -33.3306 502.56
14.1186 -1.58811 500.675
-6.61201 -0.0331407 500.516
-11.3107 -26.022 502.082
-9.2026 -0.03314 500.505
4.26973 -0.55136 500.575
22.4153 -2.62516 500.754
-11.825 -22.3732 501.85
-10.2801 -33.3279 502.519
20.9376 -33.3343 502.616
-7.12989 -0.0331394 500.496
8.96933 -33.3315 502.573
21.9612 -27.0693 502.225
1.16029 -0.0331405 500.512
-10.7659 -7.29313 500.916
18.8577 -34.3775 502.653
-9.75945 -33.3265 502.499
5.8244 -1.06958 500.577
22.4506 -16.129 501.544
-11.2983 -17.6863 501.533
-10.2787 -32.8034 502.453
22.4575 -18.7308 501.698
20.9322 -31.765 502.485
6.34294 -1.58788 500.602
12.6123 -34.3746 502.611
22.4582 -19.2507 501.712
-0.394153 -0.551279 500.502
22.966 -15.088 501.459
-10.2374 -0.0331351 500.432
-11.3004 -19.7668 501.626
7.8968 -1.06952 500.547
18.7823 -2.10629 500.643
-1.9485 -0.551259 500.483
-10.2379 -0.551228 500.455
3.23299 -1.06947 500.528
-9.23836 -33.3233 502.451
-10.7925 -28.6251 502.156
-5.57476 -0.033135 500.43
-1.43605 -33.3245 502.468
-8.71811 -33.323 502.445
2.1966 -1.06945 500.515
2.71474 -1.06944 500.512
-11.2927 -14.5638 501.284
-10.7663 -8.84919 500.936
20.9245 -29.6734 502.301
-6.63728 -33.3219 502.428
-11.316 -31.7544 502.318
-2.99659 -33.8448 502.47
16.2539 -34.8935 502.59
-1.43027 -0.551215 500.443
-10.7966 -32.2763 502.346
5.30498 -0.551238 500.464
-10.7652 -8.32977 500.887
17.8136 -34.371 502.559
-7.15722 -33.3209 502.415
-11.2928 -15.0828 501.288
-10.7671 -9.88708 500.972
-2.46634 -0.551195 500.426
22.449 -17.1661 501.507
-10.7804 -20.2847 501.592
19.375 -34.8924 502.574
21.4387 -28.1057 502.165
0.123966 -0.551188 500.419
-1.95611 -33.8427 502.439
-10.239 -2.62389 500.512
21.892 -3.14286 500.642
-11.3087 -27.0567 501.992
-10.7638 -7.81022 500.821
-9.75641 -32.7961 502.342
20.3353 -2.62433 500.596
-10.2394 -3.14217 500.532
-2.98422 -0.551163 500.396
-10.7779 -18.7225 501.476
13.5957 -1.58757 500.506
1.68435 -31.2317 502.273
5.82324 -1.58748 500.477
-6.09179 -0.0331294 500.346
20.9336 -34.3683 502.518
-11.3139 -31.2287 502.226
17.2239 -2.10586 500.541
-10.2366 -1.06918 500.392
8.96588 -32.7986 502.38
0.644584 -33.8412 502.417
-11.2995 -20.8037 501.586
14.6317 -1.58754 500.495
-10.768 -11.4439 501.014
-11.3015 -22.3655 501.676
22.9575 -14.0446 501.275
0.644611 -34.3628 502.438
-10.7923 -30.1842 502.148
-11.3043 -24.4488 501.797
-10.7684 -11.9631 501.034
-10.7649 -9.36659 500.873
-10.2393 -3.6603 500.526
3.75 -0.551138 500.373
23.4429 -2.62414 500.559
-10.7762 -18.2006 501.398
-10.2747 -32.2704 502.254
19.2954 -2.10572 500.507
-3.51602 -33.8376 502.363
10.0072 -34.3627 502.436
16.1859 -2.10564 500.489
13.0752 -1.06923 500.415
9.96673 -1.06921 500.406
-5.57358 -0.551084 500.325
-10.2394 -4.17849 500.53
-11.292 -16.1196 501.251
21.3702 -3.14235 500.561
-11.8182 -21.322 501.563
20.9204 -30.1874 502.201
14.6884 -34.3625 502.433
-11.3025 -23.9255 501.717
-10.7898 -29.1378 502.033
-10.7687 -13.0008 501.049
12.5573 -1.58731 500.422
-6.09118 -0.551052 500.296
-11.3114 -30.7018 502.112
23.4418 -3.14218 500.535
22.4449 -17.6821 501.415
8.41176 -1.06911 500.355
21.9489 -26.5345 501.944
15.7285 -34.8823 502.429
-11.2901 -15.5981 501.168
22.4356 -14.5616 501.209
22.9544 -14.5615 501.207
22.9208 -2.62369 500.473
-9.75317 -32.2653 502.175
-10.2386 -4.69632 500.494
-11.3033 -25.4857 501.755
15.6654 -2.10533 500.414
-11.2947 -19.2377 501.371
-10.7688 -14.0384 501.053
-5.07501 -33.3096 502.244
21.9407 -23.9274 501.756
-10.7762 -19.7578 501.4
-10.7645 -10.9218 500.855
9.44701 -1.06902 500.317
22.4328 -14.0409 501.145
18.2564 -2.62349 500.434
-11.3078 -29.1333 501.954
11.0015 -1.58706 500.345
23.4406 -3.66017 500.509
23.4478 -6.25282 500.662
-9.71434 -0.0331182 500.176
-0.915434 -33.3084 502.225
-8.16144 -0.550955 500.207
17.7362 -2.10516 500.373
19.8097 -2.62336 500.41
-11.3065 -28.6102 501.895
-8.679 -0.550937 500.191
-4.53656 -0.55095 500.203
20.9219 -32.7892 502.237
-11.3011 -24.9613 501.657
-11.3111 -32.2606 502.101
-10.2333 -1.5867 500.23
-8.19341 -33.3045 502.167
7.3747 -1.58686 500.282
21.9405 -24.966 501.751
10.0035 -33.8302 502.253
20.9159 -30.7007 502.094
-1.94747 -1.06881 500.218
-10.2337 -2.10466 500.254
21.4192 -24.4445 501.708
21.4271 -27.5709 501.892
-6.08989 -1.06875 500.19
22.9466 -13.5192 501.036
-0.395465 -33.3046 502.168
8.92756 -1.06884 500.233
17.2175 -2.62305 500.352
10.523 -33.8287 502.231
12.0355 -1.5868 500.264
11.0435 -34.3503 502.255
-2.46513 -1.06873 500.18
16.6989 -2.62296 500.334
10.4815 -1.58676 500.25
20.4046 -34.8735 502.303
4.26647 -1.06876 500.193
11.5172 -1.58675 500.246
-7.64228 -0.550859 500.12
8.96086 -32.2604 502.098
-10.7844 -28.0843 501.781
1.15943 -0.550882 500.141
-10.2377 -6.25013 500.447
17.217 -3.14096 500.34
-7.12426 -0.550838 500.101
22.4382 -18.1957 501.265
-9.23105 -32.7772 502.053
-3.51419 -33.3002 502.102
14.1612 -33.8256 502.185
-1.4294 -1.06865 500.141
7.91975 -31.2148 502.002
22.4079 -7.28835 500.588
22.926 -7.28833 500.587
-6.60629 -0.550818 500.083
-9.71597 -3.65835 500.26
22.3962 -3.14088 500.327
22.4301 -15.5955 501.085
-10.7829 -27.5609 501.71
11.562 -34.3459 502.192
-10.7808 -25.9977 501.613
20.8406 -2.62271 500.288
0.641649 -1.06862 500.13
-10.7658 -14.5531 500.915
-11.2936 -21.3118 501.324
13.6406 -33.8238 502.158
14.106 -2.10454 500.226
19.2862 -2.62262 500.27
-4.03369 -33.2977 502.065
22.9322 -9.88214 500.722
-10.2373 -6.76798 500.429
22.4037 -6.25074 500.495
22.4277 -15.0751 501.031
-11.3053 -30.1659 501.844
22.4048 -6.76921 500.521
-10.2637 -28.0807 501.717
16.7605 -34.3452 502.181
3.74806 -1.06859 500.114
-10.785 -29.6442 501.807
14.6798 -33.8225 502.14
21.9237 -20.7947 501.368
8.4084 -1.58646 500.156
-10.7625 -12.4749 500.758
-11.295 -22.8717 501.387
22.9168 -4.6953 500.385
22.9254 -7.80635 500.573
9.44391 -1.58645 500.153
-10.7657 -15.0714 500.909
-10.2349 -5.21254 500.31
21.9357 -25.4799 501.642
21.9205 -19.7536 501.294
-11.2934 -21.8304 501.315
-11.2955 -23.3917 501.407
-5.57064 -1.06848 500.061
-10.7872 -31.7288 501.911
19.8803 -34.8661 502.195
-10.7688 -17.6693 501.052
13.5869 -2.10434 500.179
13.1194 -33.8204 502.107
-2.98222 -1.06848 500.061
20.9054 -29.1267 501.841
-0.911488 -1.06848 500.06
22.4213 -13.5152 500.889
15.6588 -2.62227 500.203
-10.7807 -27.0359 501.606
21.9358 -25.9993 501.643
7.88983 -1.5863 500.105
22.4121 -10.3997 500.682
21.9239 -21.8329 501.372
-3.49946 -0.550724 499.997
13.0673 -1.58632 500.112
22.9273 -9.36177 500.615
21.9223 -21.3123 501.335
17.7294 -2.62216 500.182
-11.2984 -26.513 501.538
-10.2361 -7.28518 500.37
-9.71745 -6.76672 500.336
15.1396 -2.62203 500.157
-6.11103 -32.7689 501.926
22.9363 -12.9947 500.811
-2.47392 -33.291 501.964
-10.766 -16.6276 500.924
22.9143 -5.21276 500.332
-10.7646 -15.5884 500.859
-5.05193 -0.550682 499.959
20.396 -34.3391 502.092
-4.01677 -0.550682 499.959
-9.19225 -0.550664 499.943
22.9183 -6.76781 500.417
21.9137 -18.71 501.14
-5.59123 -32.7678 501.909
22.9166 -6.24931 500.381
-10.7751 -23.9079 501.347
21.4106 -24.9539 501.507
16.1743 -2.62189 500.129
16.2367 -34.3369 502.059
22.4135 -11.9554 500.714
-4.55221 -33.2887 501.929
0.124343 -33.2895 501.94
17.7284 -3.1398 500.154
-9.71224 -3.13925 500.068
22.4058 -9.36041 500.542
-10.2491 -18.705 501.006
17.2754 -34.3353 502.037
-9.71686 -7.28424 500.306
-9.71068 -2.10354 499.988
-10.7778 -26.5094 501.47
12.5966 -33.8122 501.986
-9.71424 -5.21109 500.171
-8.70776 -32.7639 501.849
-9.70911 -1.06815 499.907
-7.66907 -33.2851 501.874
22.9197 -8.32248 500.448
9.47731 -33.2883 501.922
21.4109 -25.9925 501.512
-7.63897 -1.06814 499.904
-10.2322 -5.72898 500.179
22.4138 -12.9923 500.722
4.78184 -1.06821 499.937
-10.2392 -11.4327 500.521
20.3886 -32.7677 501.908
-10.7598 -13.5084 500.635
21.4127 -27.0333 501.557
-10.763 -16.1046 500.785
-0.39368 -1.06814 499.902
-9.70783 -0.550551 499.841
1.6764 -1.06814 499.904
-9.70897 -1.58565 499.899
-10.7827 -31.1959 501.698
1.16335 -32.7627 501.83
-10.7642 -17.1434 500.841
3.22916 -1.58576 499.935
20.8874 -24.9491 501.411
-10.7736 -24.4236 501.279
-9.71246 -4.69243 500.079
22.929 -12.4722 500.651
22.9188 -8.84021 500.428
15.194 -34.3297 501.954
22.9259 -11.4341 500.584
20.3859 -32.2439 501.842
8.9223 -1.58577 499.938
2.71152 -1.58571 499.917
22.9098 -5.72958 500.232
-8.15559 -1.06802 499.849
22.403 -9.87734 500.479
20.3803 -30.1576 501.706
22.9051 -4.17516 500.13
-9.71148 -4.17431 500.029
0.12383 -1.06807 499.868
18.7589 -2.6213 500.018
22.9222 -10.396 500.503
-10.7744 -25.4632 501.314
21.4025 -23.9064 501.317
9.95707 -1.58572 499.921
22.3906 -5.72924 500.202
21.9003 -16.1061 500.831
21.3964 -21.8243 501.174
14.6156 -2.10335 499.943
22.9251 -11.9519 500.566
5.29843 -1.06802 499.845
22.3953 -7.8022 500.307
22.9016 -3.65684 500.054
20.3823 -31.7187 501.753
-10.7653 -19.2193 500.892
21.9003 -16.6246 500.832
19.3491 -34.3261 501.901
-10.7706 -23.3792 501.139
-10.2376 -11.9489 500.442
21.907 -19.2228 500.984
2.19367 -1.58548 499.847
5.81637 -2.10311 499.887
-5.06971 -32.7554 501.719
6.8514 -2.10312 499.889
6.33384 -2.1031 499.884
-9.70831 -2.6205 499.865
21.9148 -22.3426 501.163
-4.55025 -32.755 501.712
20.8927 -28.5899 501.537
19.2751 -3.13872 499.983
13.0618 -2.10317 499.9
9.4389 -2.10311 499.887
22.9202 -10.9131 500.459
-9.71223 -6.24539 500.067
15.7105 -34.3229 501.855
8.40358 -2.10304 499.869
22.3818 -3.65649 500.005
-1.95336 -33.2756 501.731
20.8813 -24.4228 501.263
17.7875 -33.8011 501.822
10.991 -2.10304 499.87
21.8636 -3.65639 499.992
-10.2347 -10.3918 500.302
21.3794 -16.6227 500.776
20.8267 -3.13853 499.952
20.3732 -29.1086 501.53
20.3783 -31.1933 501.657
-10.766 -20.7762 500.923
21.9004 -17.6616 500.834
21.9018 -18.1812 500.865
18.2383 -3.13844 499.938
21.9155 -23.381 501.179
21.3938 -22.3404 501.113
22.8967 -3.1385 499.947
-6.60162 -1.06777 499.729
-10.2441 -18.1774 500.759
-1.42835 -1.58525 499.774
22.383 -4.692 500.034
5.29779 -1.58529 499.786
12.5426 -2.1029 499.836
4.78033 -1.58527 499.779
15.6495 -3.13822 499.904
7.88521 -2.1028 499.812
18.3051 -33.7976 501.769
-2.46296 -1.58514 499.741
18.8244 -33.7974 501.766
-9.71029 -5.72656 499.968
-10.2452 -19.7348 500.816
4.26272 -1.58519 499.754
22.4025 -12.4676 500.468
10.472 -2.10274 499.797
-1.94555 -1.5851 499.726
-10.2339 -10.9088 500.261
20.3743 -30.6679 501.558
-1.43361 -32.7486 501.615
16.6833 -3.13799 499.867
-9.22133 -31.7043 501.524
-10.2363 -12.9834 500.377
-9.73605 -28.057 501.294
-10.7773 -30.6612 501.448
-7.11793 -1.06761 499.657
-2.47211 -32.7475 501.598
-2.99146 -33.2676 501.611
17.7184 -3.6555 499.871
12.0697 -33.7921 501.688
-5.04872 -1.06758 499.642
-10.2292 -7.7979 500.032
15.1294 -3.13771 499.822
22.3887 -8.31768 500.159
-10.231 -9.35251 500.12
21.8831 -12.985 500.438
3.74485 -1.58497 499.685
9.99111 -33.2689 501.63
7.36648 -2.10243 499.725
16.164 -3.13765 499.812
-6.08325 -1.58484 499.645
21.3967 -25.4565 501.182
-2.97976 -1.58485 499.647
-10.7652 -22.3302 500.885
22.3889 -8.83557 500.165
21.3397 -3.65532 499.846
-10.2369 -14.5384 500.409
22.376 -4.17304 499.877
-10.244 -20.2508 500.754
13.0579 -2.61991 499.752
-10.7684 -24.9304 501.035
19.8519 -30.663 501.478
-0.914179 -32.7435 501.537
0.643497 -33.265 501.57
22.3939 -10.9092 500.276
19.8604 -34.3118 501.692
21.9004 -20.2541 500.835
-9.19177 -6.76104 499.917
19.8524 -31.183 501.49
-9.22019 -32.2195 501.462
8.91773 -2.10225 499.682
-10.2357 -14.0186 500.347
-4.02894 -32.2203 501.474
21.3759 -18.175 500.694
-5.56549 -1.58469 499.598
-10.763 -21.2888 500.781
22.3773 -5.20832 499.905
21.883 -14.0211 500.436
-10.2535 -28.5716 501.218
20.8808 -27.5357 501.251
21.37 -16.0972 500.556
21.862 -6.24401 499.957
10.509 -33.2645 501.564
20.3771 -33.7879 501.626
-4.02903 -32.7401 501.484
20.8764 -25.9735 501.147
21.3764 -18.6937 500.704
21.8726 -10.3896 500.199
-10.2395 -17.6511 500.535
-10.255 -30.1329 501.294
21.3962 -26.4935 501.169
21.3799 -20.2522 500.788
18.7483 -3.13718 499.737
13.5735 -2.61956 499.686
19.8481 -30.138 501.38
-10.2282 -8.83237 499.984
21.8896 -17.1347 500.588
20.3 -3.13713 499.729
-9.71548 -12.9797 500.235
-4.53041 -1.06733 499.525
17.1967 -3.6546 499.748
11.0282 -33.7834 501.559
-9.1853 -2.10176 499.565
-9.7374 -31.6941 501.363
-6.62416 -32.7369 501.435
21.8793 -13.5007 500.352
-9.19083 -7.27783 499.866
0.12375 -1.58453 499.546
-10.7635 -22.8452 500.806
18.2306 -3.65446 499.728
21.3863 -23.3697 500.936
21.3713 -17.6528 500.586
22.3909 -11.4255 500.209
-7.11593 -1.58443 499.516
21.3791 -20.7698 500.769
21.3804 -21.2894 500.798
19.8497 -31.6978 501.422
-9.18384 -1.58434 499.486
21.8732 -11.9434 500.212
-9.18611 -3.65359 499.609
20.3462 -22.8479 500.866
0.640853 -1.58441 499.509
-9.70807 -7.79512 499.853
-9.73262 -28.5659 501.117
21.8631 -8.31473 499.982
-9.72212 -19.7254 500.577
-10.2494 -27.0042 501.018
16.7382 -33.7803 501.513
21.8615 -7.79656 499.945
21.8807 -15.0556 500.383
21.879 -14.5365 500.346
21.3677 -17.1317 500.502
-10.2497 -27.5237 501.033
-0.910432 -1.58432 499.481
14.0879 -2.61904 499.586
-7.6321 -1.58424 499.454
20.8145 -3.65397 499.66
-9.73375 -30.1257 501.175
-3.50892 -32.7313 501.349
-10.2272 -9.8666 499.935
20.8642 -23.3658 500.852
21.8639 -9.35028 500.001
-10.2336 -15.0515 500.247
-10.2362 -17.1273 500.373
-10.2303 -12.4582 500.088
21.8716 -12.4604 500.176
11.5003 -2.10153 499.512
21.8798 -15.573 500.364
20.8502 -18.1686 500.517
-9.71904 -18.165 500.418
-10.2248 -8.31196 499.816
-9.18359 -2.61844 499.472
-9.1853 -4.17044 499.565
9.94865 -2.10148 499.498
-8.66487 -1.06702 499.377
21.3803 -22.8447 500.796
21.3478 -10.3862 500.034
20.3597 -29.6082 501.198
21.8488 -4.17118 499.654
15.1782 -33.7749 501.432
-9.72551 -23.8794 500.751
-9.71378 -14.013 500.147
-8.17912 -32.7274 501.291
-10.2347 -16.6069 500.299
21.3538 -12.9782 500.176
20.3476 -24.9236 500.899
-3.49508 -1.067 499.371
-0.393294 -1.5841 499.411
-9.72463 -23.3589 500.706
21.8631 -9.86751 499.981
14.603 -2.61866 499.514
20.8604 -22.8431 500.761
12.0164 -2.10136 499.469
-10.233 -15.5686 500.22
5.29421 -2.10126 499.448
4.77713 -2.10125 499.444
21.897 -22.8429 500.757
-9.71878 -18.6825 500.404
-10.2303 -13.4936 500.087
-9.1851 -4.6875 499.554
-9.71016 -11.4199 499.961
-9.73097 -29.0797 501.032
-10.7587 -21.7986 500.584
-9.18091 -1.06691 499.326
12.5339 -2.61851 499.486
-9.18319 -3.13537 499.45
21.3293 -4.17075 499.602
9.43103 -2.61843 499.47
-8.69675 -32.2036 501.214
1.15759 -1.06695 499.348
21.3467 -10.9033 500.009
-6.59664 -1.58391 499.352
20.3548 -28.5636 501.077
-7.65942 -32.7243 501.242
19.8472 -33.251 501.359
-7.14053 -32.7244 501.243
-4.01166 -1.0669 499.323
21.3583 -15.5705 500.282
19.3291 -33.7715 501.382
11.5428 -33.7699 501.357
21.8638 -10.9031 499.997
-6.07995 -2.10095 499.373
-9.18619 -6.23972 499.613
-9.71316 -14.5298 500.115
1.67458 -1.58394 499.362
17.2524 -33.7706 501.368
13.099 -33.2486 501.324
19.774 -3.13575 499.51
20.8517 -20.2426 500.552
-9.70569 -8.31055 499.731
20.8688 -27.0013 500.963
-10.2495 -29.5979 501.024
-9.71056 -12.4555 499.981
20.3654 -33.2495 501.338
-10.2365 -19.1999 500.387
20.8434 -17.1266 500.352
-9.70593 -8.82811 499.743
20.3403 -23.3596 500.721
-1.94411 -2.10088 499.356
19.8368 -29.6021 501.094
21.8484 -5.72286 499.645
21.8565 -8.82966 499.831
21.3363 -7.79375 499.765
20.8596 -23.879 500.743
-7.11324 -2.10076 499.327
21.8507 -6.75809 499.698
-10.241 -23.3544 500.609
-1.9513 -32.7217 501.203
-1.42711 -2.1008 499.339
-10.244 -25.9533 500.755
-6.10156 -32.1994 501.148
20.8652 -26.4781 500.877
-9.71072 -13.491 499.99
-9.7076 -10.8994 499.829
-9.7088 -11.9358 499.891
-10.2508 -31.6768 501.09
-2.46084 -2.10069 499.311
20.8515 -21.2788 500.548
-10.2384 -21.7942 500.483
16.2116 -33.7649 501.284
15.6925 -33.7646 501.279
13.6157 -33.2431 501.241
2.70822 -2.10068 499.309
16.6692 -3.6524 499.447
-3.50733 -32.1976 501.122
21.3635 -19.2005 500.403
21.3648 -19.7198 500.434
21.3352 -8.31069 499.739
-9.7052 -9.34476 499.705
18.7373 -3.65238 499.444
-5.56186 -2.10053 499.273
-8.69412 -31.6751 501.063
-10.2307 -16.0828 500.108
9.46332 -32.7203 501.181
-10.2488 -30.6332 500.989
-8.66382 -3.13454 499.317
21.352 -15.0481 500.135
20.8671 -28.0362 500.923
21.3506 -14.5294 500.101
-10.2421 -25.4302 500.663
13.0481 -3.13492 499.378
19.8434 -33.7634 501.261
-5.04448 -1.5835 499.222
-9.72057 -22.8311 500.497
21.8594 -11.4184 499.897
-9.18266 -5.20328 499.422
20.8597 -25.4344 500.745
-5.58189 -32.1944 501.071
-10.2398 -23.8698 500.549
21.3375 -9.86382 499.794
0.123677 -2.10044 499.253
20.3448 -26.9941 500.831
-2.98846 -32.7154 501.106
-5.06309 -32.1939 501.064
19.8309 -29.0747 500.946
-10.2459 -29.069 500.847
20.2864 -3.65201 499.393
10.4615 -2.61752 499.297
-10.2373 -22.31 500.43
-9.18269 -5.72032 499.423
12.53 -3.13463 499.332
-9.72289 -25.4278 500.616
-10.2424 -26.4675 500.677
19.8377 -32.1975 501.119
-10.2359 -21.2708 500.36
20.3424 -26.4725 500.771
-9.71362 -17.6371 500.139
-9.71295 -17.1182 500.105
-4.54413 -32.1922 501.038
-2.97714 -2.10026 499.209
20.8461 -20.7552 500.418
-9.72513 -27.5072 500.731
-9.72324 -25.947 500.634
-9.70422 -9.86108 499.655
-0.394604 -32.7133 501.075
21.3449 -13.4904 499.967
-0.909927 -2.10024 499.204
14.0801 -3.13449 499.309
21.8457 -7.27371 499.583
20.3438 -27.5112 500.806
13.5629 -3.13441 499.296
20.8475 -21.7929 500.453
-8.1743 -32.1895 500.995
14.1314 -33.2356 501.127
9.94366 -2.61726 499.247
-10.239 -24.3861 500.51
0.12412 -32.7112 501.041
21.3382 -11.4164 499.811
8.39292 -2.61719 499.234
19.2499 -3.65154 499.328
4.25782 -2.10013 499.179
2.19071 -2.1001 499.171
11.0179 -33.2332 501.092
-9.72839 -31.1463 500.9
-9.71726 -21.7874 500.326
-8.66109 -2.6168 499.159
-9.71656 -21.2679 500.29
15.1679 -33.2333 501.093
-8.65981 -1.58307 499.085
20.3429 -28.0285 500.785
-9.72736 -30.6244 500.846
20.8467 -22.3101 500.433
-9.70331 -10.3774 499.608
-10.2359 -22.8249 500.362
15.1128 -3.65112 499.272
20.3372 -25.9475 500.644
-2.98751 -32.1864 500.947
14.6484 -33.2314 501.065
-8.65997 -2.09978 499.095
-6.59332 -2.09981 499.101
-7.65462 -32.1852 500.928
1.16123 -31.666 500.918
18.2148 -4.16817 499.294
-9.71941 -24.3825 500.437
12.5729 -33.23 501.043
-8.14258 -1.58296 499.051
3.7406 -2.09988 499.118
-3.49288 -1.58298 499.058
19.8227 -28.0259 500.739
6.84129 -2.61676 499.151
-9.18828 -12.9665 499.727
16.1454 -3.65086 499.236
10.9753 -2.61678 499.156
8.90821 -2.61674 499.149
-9.72144 -26.4604 500.542
13.0441 -3.65077 499.224
-4.52601 -1.58292 499.039
-9.70839 -15.5577 499.87
0.124087 -32.1838 500.907
-9.70947 -16.5945 499.925
7.8744 -2.61663 499.127
12.0532 -33.2271 500.999
20.8372 -19.7107 500.204
17.6962 -4.16778 499.247
-9.71236 -19.1879 500.074
21.3225 -7.27169 499.444
0.642668 -32.7035 500.924
19.31 -31.1454 500.886
-7.13513 -32.1811 500.864
-9.71341 -20.2255 500.128
-9.18813 -13.4836 499.719
21.3397 -14.0045 499.845
7.35732 -2.6165 499.103
3.2235 -2.09962 499.058
20.831 -17.6342 500.056
19.8218 -28.5431 500.717
20.7967 -4.16767 499.233
9.97727 -32.7042 500.935
-9.7211 -26.9776 500.524
21.3189 -6.23653 499.358
20.8242 -15.0408 499.892
-0.393 -2.09954 499.038
21.3256 -8.82407 499.514
-10.2444 -31.1384 500.773
-9.20406 -28.0173 500.585
17.178 -4.16744 499.206
16.2015 -33.2252 500.971
9.45774 -32.1824 500.885
-9.19453 -19.7053 500.067
14.5918 -3.13337 499.131
4.77349 -2.6163 499.064
18.7946 -33.2252 500.971
-9.70655 -15.0373 499.775
12.0071 -2.6164 499.084
-4.00882 -1.5827 498.969
-9.20248 -26.9763 500.499
20.3311 -25.4216 500.494
20.8269 -16.5955 499.958
1.67341 -2.09943 499.011
1.15673 -1.58272 498.977
19.3102 -32.1829 500.892
13.5584 -3.6501 499.132
-2.46827 -32.1781 500.818
-9.18059 -7.78663 499.309
-10.2304 -20.7417 500.092
21.3246 -9.34077 499.492
-6.07537 -2.61595 498.997
21.3323 -12.4479 499.673
19.3081 -31.6608 500.836
-10.2353 -24.8953 500.331
11.5323 -33.2207 500.904
9.42334 -3.13295 499.064
21.3307 -11.9296 499.634
-8.65896 -3.6494 499.037
-3.50477 -31.6557 500.756
3.73978 -2.61602 499.01
-8.17014 -31.6547 500.74
4.25639 -2.61602 499.011
19.8285 -32.7011 500.887
-8.66211 -6.75159 499.218
-9.70666 -16.0723 499.781
1.15669 -2.09921 498.96
-0.912787 -32.1752 500.773
21.8273 -4.68383 499.163
-9.19753 -23.8546 500.23
15.6236 -3.64969 499.076
20.3099 -18.1488 499.971
-8.6604 -5.71684 499.119
11.4883 -2.61591 498.99
21.8279 -5.20073 499.177
20.3196 -22.3002 500.211
20.3131 -19.7047 500.051
14.0729 -3.64953 499.054
-9.18324 -11.4082 499.453
20.3169 -21.2616 500.143
6.32217 -2.61577 498.964
-0.394338 -32.1729 500.736
2.70622 -2.61565 498.941
-7.6232 -2.09884 498.872
19.2986 -29.0542 500.592
19.2995 -29.5737 500.614
13.0393 -4.16607 499.042
10.4546 -3.13235 498.968
-8.65781 -4.16547 498.97
-5.04071 -2.09875 498.849
-8.66098 -7.26746 499.153
-9.20026 -27.4878 500.379
-9.19558 -23.3318 500.124
-9.17875 -8.30187 499.209
-9.18974 -18.1428 499.806
12.004 -3.13228 498.957
19.301 -30.6126 500.653
1.16071 -32.17 500.691
-4.02225 -31.6485 500.641
-9.71003 -20.736 499.954
-9.17912 -8.81903 499.229
-9.20399 -31.1265 500.581
-8.65839 -5.19892 499.003
-1.4309 -32.1684 500.667
18.2694 -33.2132 500.79
-9.72008 -29.5653 500.472
-8.65758 -4.6819 498.957
-6.58983 -2.61511 498.837
-9.71131 -22.2917 500.02
21.3108 -6.75093 499.169
16.6539 -4.16562 498.988
20.8251 -19.1818 499.914
19.7524 -3.64887 498.963
15.6759 -33.2105 500.749
-7.13109 -31.6446 500.58
-9.18461 -14.5127 499.527
-9.18922 -18.6591 499.778
3.22207 -2.61511 498.837
20.2697 -4.16558 498.983
-9.18565 -15.5488 499.584
-9.18217 -12.4409 499.394
-6.07336 -3.1315 498.832
5.80415 -2.61511 498.837
19.2362 -4.16549 498.973
20.8162 -16.0697 499.701
17.749 -33.2095 500.735
-1.4256 -2.61498 498.812
8.90331 -3.13176 498.874
-9.18024 -10.8876 499.289
20.8226 -18.662 499.855
20.3179 -23.8516 500.167
19.2931 -28.5278 500.448
-9.19516 -24.3662 500.101
20.3188 -24.3706 500.191
-8.68453 -31.122 500.51
19.3037 -33.2088 500.724
-9.1997 -28.522 500.348
-6.61275 -32.1623 500.571
-8.65808 -6.23188 498.986
-5.55626 -2.61476 498.77
-9.17856 -9.85207 499.198
-9.71306 -24.8844 500.11
20.8134 -15.5503 499.633
19.8024 -25.408 500.227
18.718 -4.16513 498.93
-8.16597 -31.1205 500.485
0.123559 -2.61478 498.773
8.38608 -3.13147 498.828
17.2287 -33.2059 500.681
20.81 -14.5135 499.553
12.5182 -3.64814 498.864
4.77096 -3.13129 498.8
2.18888 -2.61469 498.756
-2.98488 -31.64 500.507
0.639831 -2.09817 498.713
10.4889 -32.6826 500.604
3.73797 -3.13109 498.768
-0.392751 -2.61451 498.722
-9.19887 -29.0374 500.303
-9.19996 -30.0768 500.362
5.28664 -2.61457 498.734
7.86879 -3.13112 498.772
9.4185 -3.64772 498.807
4.25424 -3.13104 498.759
-0.909028 -2.61445 498.711
20.3083 -21.7703 499.934
-1.94855 -32.1574 500.495
16.1327 -4.16442 498.845
14.6339 -32.6804 500.571
-1.94151 -2.61433 498.688
15.0995 -4.16432 498.832
18.7787 -32.1607 500.547
15.1519 -32.68 500.563
9.93365 -3.13095 498.745
14.1151 -32.6791 500.551
11.4826 -3.13093 498.743
-2.97389 -2.6142 498.664
20.3031 -20.2124 499.804
20.7955 -10.369 499.204
-9.17565 -9.33232 499.04
-5.05648 -31.6338 500.41
16.1874 -32.6781 500.535
-4.52209 -2.09773 498.608
-9.19059 -22.8017 499.853
18.1977 -4.68066 498.825
8.38445 -3.64717 498.731
14.5806 -3.64729 498.747
19.7992 -26.4395 500.147
-3.48962 -2.09766 498.591
20.2978 -18.6552 499.673
19.8004 -26.9589 500.176
21.2988 -5.71418 498.887
3.22101 -3.1305 498.673
-8.13481 -2.09759 498.575
13.0773 -32.6754 500.493
-9.17777 -11.9182 499.155
19.8011 -27.4776 500.192
-2.45737 -2.6139 498.606
20.8024 -13.9912 499.368
0.642004 -32.1517 500.407
-9.18217 -16.0599 499.395
20.8007 -13.4731 499.33
-9.17982 -13.9883 499.267
-9.18271 -16.5778 499.424
-8.13892 -6.74631 498.827
7.35065 -3.13036 498.65
18.7763 -32.6747 500.483
11.9975 -3.64682 498.684
19.2879 -30.074 500.315
1.15582 -2.61379 498.584
-4.00528 -2.0974 498.529
-9.18504 -19.1678 499.551
-8.65584 -7.77958 498.857
1.67194 -2.61372 498.572
-9.19644 -29.5475 500.171
20.7764 -4.67992 498.746
19.7923 -24.8775 499.972
13.5936 -32.6711 500.427
-7.64497 -31.6267 500.297
14.0627 -4.16313 498.69
11.003 -32.6703 500.416
-7.10185 -2.61349 498.528
-4.53744 -31.6269 500.3
13.5462 -4.16307 498.683
-8.66146 -13.4691 499.18
16.703 -33.1912 500.459
21.2918 -4.67971 498.723
-8.66065 -12.9511 499.133
8.89873 -3.64634 498.617
9.9657 -32.1483 500.354
15.665 -32.6693 500.4
19.2914 -32.6697 500.406
-9.18576 -20.7209 499.59
10.9627 -3.12991 498.58
20.7902 -10.883 499.075
19.7929 -25.9134 499.987
-9.1873 -22.2762 499.674
-9.18149 -17.0926 499.358
19.7403 -4.16287 498.659
18.2548 -32.6686 500.39
19.2251 -4.67935 498.685
20.7872 -9.84825 499.005
-8.65512 -8.29533 498.815
20.2971 -20.7237 499.658
-8.65831 -11.3979 498.999
-8.13297 -2.61315 498.462
-8.66133 -14.5024 499.173
-6.60808 -31.6217 500.218
-6.58517 -3.12931 498.484
8.3821 -4.1623 498.591
-8.13521 -5.19472 498.599
17.6747 -4.67892 498.639
18.7616 -28.5074 500.09
-9.19567 -30.5806 500.129
-9.17304 -10.3626 498.898
-8.65821 -11.9143 498.993
-8.66638 -19.6816 499.464
-8.65482 -8.81141 498.798
-9.18496 -21.2362 499.546
-8.13268 -3.12906 498.445
-2.4652 -31.6202 500.194
19.7822 -22.7955 499.716
18.7059 -4.67861 498.606
16.6408 -4.6785 498.595
20.7874 -11.3981 499.009
-9.18321 -20.1981 499.451
18.2501 -32.1424 500.261
-9.18488 -21.7532 499.542
-5.03602 -2.61274 498.385
-8.13354 -4.67759 498.497
17.1562 -4.6783 498.573
-0.392516 -3.12893 498.424
12.5533 -32.6602 500.261
-8.13599 -7.26009 498.647
20.2801 -15.538 499.239
-8.13443 -5.71034 498.551
-9.18912 -25.9023 499.773
-8.66347 -18.1243 499.296
-9.17677 -15.017 499.101
-8.65396 -9.32686 498.748
-8.13433 -6.22639 498.546
14.5731 -4.16146 498.49
-8.66133 -16.5695 499.173
21.2853 -5.19443 498.572
-9.17918 -17.6051 499.232
10.9978 -32.137 500.178
-8.66343 -18.6411 499.294
11.5163 -32.6568 500.209
-8.65408 -9.84332 498.755
13.0253 -4.67767 498.506
7.86326 -3.6449 498.421
6.8308 -3.12869 498.385
-5.55153 -3.12844 498.346
-9.18872 -26.4186 499.751
19.7796 -23.3097 499.651
-8.1314 -3.6445 498.366
10.4794 -32.1353 500.151
15.6043 -4.16123 498.463
-8.67447 -29.5333 499.93
15.6576 -32.136 500.162
10.443 -3.64483 498.411
2.70301 -3.12847 498.35
12.0333 -32.6546 500.175
-5.57056 -31.6113 500.054
-4.00332 -2.61221 498.284
-8.1349 -7.77527 498.581
4.76675 -3.64445 498.359
-9.18664 -25.3781 499.638
-8.13104 -4.16025 498.344
-3.49946 -31.0901 499.997
16.6928 -32.6532 500.153
-6.08778 -31.609 500.017
0.123441 -3.12816 498.3
19.2707 -27.9772 499.867
20.2788 -17.0874 499.207
15.0873 -4.67696 498.43
-7.12237 -31.0884 499.969
6.31383 -3.12819 498.305
-8.65364 -10.8754 498.73
2.18683 -3.12808 498.288
20.7715 -7.776 498.627
-8.65902 -16.0485 499.04
-0.908235 -3.128 498.276
20.7844 -12.946 498.938
1.15511 -3.12802 498.278
-6.06666 -3.64388 498.282
-8.6528 -10.3581 498.682
-8.65497 -12.4263 498.807
-8.66205 -19.1549 499.214
18.7592 -31.0919 500.026
20.2751 -16.0508 499.114
5.28175 -3.12798 498.272
20.2464 -4.67675 498.409
1.159 -31.0876 499.956
-4.51844 -2.6118 498.205
-8.65789 -15.5298 498.975
-8.67212 -29.0079 499.795
8.89368 -4.16016 498.334
4.25021 -3.64392 498.286
12.0302 -32.1284 500.044
16.6896 -32.1292 500.057
20.7799 -11.9104 498.829
19.7702 -21.7476 499.413
-8.67105 -28.487 499.733
12.5045 -4.16002 498.317
20.2768 -17.6025 499.158
-1.42388 -3.12758 498.208
3.73408 -3.64365 498.249
19.7286 -4.67631 498.361
-2.46374 -31.0841 499.9
19.7757 -24.3394 499.551
5.79691 -3.12762 498.214
17.7246 -32.6462 500.046
19.7741 -23.8203 499.511
20.7702 -8.80784 498.596
-8.65875 -17.5978 499.024
20.2789 -19.1547 499.208
0.641357 -31.6018 499.902
8.92153 -31.0838 499.895
20.2671 -14.495 498.918
-1.94617 -31.6007 499.885
-8.14086 -16.562 498.945
10.9546 -3.64339 498.214
15.1335 -32.1227 499.956
16.1147 -4.67562 498.288
20.7776 -12.4254 498.773
19.2113 -5.19187 498.326
18.6953 -5.19183 498.322
9.92273 -3.64326 498.197
20.7639 -7.25716 498.446
-3.48609 -2.61118 498.087
-9.18269 -24.8501 499.423
-8.65747 -17.0786 498.95
-2.98077 -31.079 499.817
-8.65413 -13.9741 498.758
1.67045 -3.12708 498.129
18.7549 -31.6023 499.911
-7.63734 -31.0777 499.797
-0.3923 -3.64291 498.148
9.40714 -4.15909 498.205
-4.53288 -31.0777 499.797
3.21761 -3.64289 498.146
-1.93921 -3.12688 498.096
0.639007 -2.61109 498.07
20.757 -5.19139 498.28
-0.907943 -3.64267 498.115
-5.03284 -3.12671 498.07
-7.63625 -30.5559 499.726
0.123816 -31.5961 499.812
11.9853 -4.15886 498.178
20.2521 -9.83924 498.548
-8.15342 -30.5553 499.715
18.1768 -5.19109 498.252
7.34288 -3.64272 498.123
20.7663 -9.32227 498.503
17.2021 -32.6371 499.907
20.2639 -15.0092 498.84
-0.910979 -31.5941 499.781
16.1656 -32.1167 499.863
1.15464 -3.64238 498.077
17.144 -5.19075 498.219
19.7231 -5.19081 498.225
-8.13222 -9.83663 498.416
19.2579 -26.9244 499.536
20.2667 -16.5607 498.907
9.43703 -31.5946 499.789
-1.42829 -31.5923 499.753
20.7617 -8.28831 498.393
-5.04924 -31.0713 499.693
6.82617 -3.64217 498.048
19.7622 -22.2556 499.211
-2.45427 -3.12613 497.977
-8.13601 -14.4872 498.649
-8.13703 -15.5216 498.711
-8.13189 -10.3522 498.396
-8.14937 -27.9548 499.467
14.0465 -4.67402 498.117
-7.09372 -3.12601 497.957
15.5935 -4.67403 498.118
-6.60065 -31.0689 499.656
11.4664 -3.64213 498.042
-8.15132 -30.0302 499.587
20.2362 -5.1901 498.157
17.6573 -5.19002 498.149
-8.65791 -20.1789 498.976
-4.51613 -3.12596 497.95
-4.01426 -31.0683 499.647
-4.00059 -3.12593 497.945
-8.66107 -23.2867 499.158
5.27891 -3.64186 498.005
-8.12989 -8.80215 498.274
12.5406 -32.1097 499.753
-8.66529 -27.4341 499.401
-8.12929 -8.28571 498.237
-8.15034 -29.5095 499.527
5.79433 -3.64177 497.993
-8.13021 -9.31835 498.293
-7.61093 -5.70481 498.069
7.85693 -4.15754 498.02
-8.6683 -30.5467 499.575
-8.65954 -22.2493 499.069
4.76338 -4.15743 498.007
-8.65993 -22.767 499.092
-7.11667 -30.5463 499.569
0.123355 -3.64147 497.952
13.5292 -4.67345 498.056
11.5049 -32.1072 499.715
15.6429 -31.5886 499.694
20.7535 -6.73776 498.195
-2.96934 -3.12565 497.901
19.7529 -19.6623 498.976
-8.65145 -15.0021 498.604
-8.13368 -13.4509 498.506
18.7419 -29.5118 499.566
14.6087 -32.1069 499.709
-8.13877 -18.6233 498.818
-8.13153 -11.3836 498.374
-8.65708 -20.6935 498.928
-8.1318 -11.8999 498.391
9.9183 -4.15716 497.974
6.30902 -3.64128 497.926
-8.66454 -27.9487 499.358
-1.423 -3.64109 497.9
-7.61036 -6.21996 498.032
14.0904 -32.1046 499.674
9.95126 -31.5845 499.629
-8.66111 -24.8371 499.16
-7.61081 -6.73595 498.061
-8.14684 -27.4292 499.312
-0.393427 -31.5814 499.58
-8.65736 -21.7272 498.944
-8.66009 -24.3175 499.101
-7.62913 -26.9095 499.26
20.2499 -12.9345 498.494
18.738 -28.9886 499.462
-7.6112 -7.76757 498.087
16.621 -5.18849 498.002
-7.60635 -2.60951 497.769
20.7486 -6.22053 498.077
-8.662 -26.3901 499.212
-8.6592 -23.7983 499.05
-2.46166 -30.5408 499.478
5.7932 -4.1565 497.896
10.4324 -4.1566 497.907
2.70031 -3.64074 497.851
-7.61039 -7.25115 498.033
-8.12949 -10.8649 498.249
-7.60744 -4.15604 497.841
-8.14179 -23.2795 499.003
-8.13454 -16.033 498.558
-8.13554 -17.0673 498.619
12.4948 -4.67225 497.929
12.0186 -31.5804 499.564
-5.56414 -31.0578 499.477
13.0538 -32.0996 499.597
-5.54552 -3.64041 497.806
-1.93811 -3.64047 497.815
20.2391 -9.31714 498.228
10.9473 -4.15639 497.882
19.2496 -27.4297 499.321
-8.66183 -26.9063 499.202
19.2446 -25.3553 499.189
-2.97849 -30.5382 499.436
0.638628 -3.12486 497.775
-7.09163 -4.15579 497.81
-8.13098 -12.9306 498.34
-4.51457 -3.6402 497.778
-7.09105 -3.64014 497.77
-3.4954 -30.5371 499.418
-8.13999 -22.2414 498.892
-8.13022 -12.4135 498.293
-8.14152 -23.7953 498.986
-3.48367 -3.12465 497.742
-8.13581 -18.1003 498.636
4.24627 -4.15591 497.825
-7.11375 -30.0168 499.363
18.7384 -30.5404 499.472
20.2475 -13.449 498.436
14.5553 -4.6718 497.88
-7.09296 -6.21837 497.904
-8.13663 -19.1346 498.686
-4.51463 -4.15557 497.785
10.9829 -31.5764 499.501
-7.60737 -5.18676 497.836
-8.14579 -28.4593 499.248
-8.14353 -26.3847 499.109
9.40024 -4.67142 497.84
-8.66393 -30.0144 499.323
-5.02937 -3.63983 497.727
-8.13663 -19.6509 498.687
15.0706 -5.1872 497.878
18.222 -31.5757 499.49
5.27649 -4.1555 497.776
7.33785 -4.15555 497.782
-0.391989 -4.15531 497.754
18.7351 -30.0181 499.385
19.7106 -5.70295 497.907
13.5681 -32.0926 499.487
8.88417 -4.67106 497.801
0.123708 -31.0515 499.375
-7.60594 -4.67051 497.742
19.2427 -26.3863 499.14
-3.99845 -3.63947 497.679
8.36845 -4.67085 497.779
-8.65806 -25.3449 498.985
-1.94409 -31.05 499.351
16.1 -5.18672 497.832
-7.60472 -3.63935 497.662
19.7388 -18.0997 498.619
19.2407 -25.8669 499.089
18.6777 -5.70236 497.855
20.2445 -13.9629 498.361
-7.09199 -6.7329 497.836
17.1863 -32.0901 499.448
-6.57404 -3.6392 497.641
-7.09008 -4.67013 497.702
18.1617 -5.70217 497.839
20.24 -12.4124 498.25
19.1923 -5.70213 497.835
1.66885 -3.63928 497.652
19.7423 -20.1681 498.709
-8.13539 -20.1641 498.611
20.2363 -11.3787 498.16
19.2303 -22.2381 498.818
-8.13782 -22.7518 498.76
19.724 -12.9281 498.247
0.640567 -31.0459 499.286
-8.13668 -21.7161 498.69
4.76036 -4.67002 497.691
19.7348 -17.58 498.52
-8.13968 -24.8228 498.874
-8.13557 -20.6807 498.621
-8.14379 -28.9691 499.125
-0.907068 -4.15433 497.635
19.2331 -23.7908 498.891
-8.12882 -13.9586 498.208
11.4579 -4.15463 497.672
16.6662 -31.5672 499.356
20.2277 -8.28093 497.949
-6.07849 -31.0439 499.253
-7.08961 -5.18502 497.669
-7.09183 -7.76348 497.824
-7.60281 -3.12337 497.538
-5.02816 -4.1541 497.607
11.4959 -31.565 499.321
17.7006 -32.085 499.369
-7.08982 -5.70039 497.683
-2.45227 -3.63869 497.572
17.6435 -5.70126 497.759
-8.14022 -25.8574 498.906
-1.42214 -4.15405 497.601
-8.13186 -17.5756 498.394
6.82031 -4.1542 497.62
19.7419 -21.2002 498.698
19.7095 -7.76434 497.879
10.4616 -31.5636 499.299
20.2313 -10.3447 498.037
19.234 -24.8249 498.915
-3.48232 -3.63851 497.548
-2.96722 -3.6385 497.546
0.123265 -4.15392 497.587
19.714 -9.82827 497.993
9.91171 -4.66958 497.644
1.1535 -4.1539 497.584
-3.99755 -4.15375 497.566
-8.14073 -26.8921 498.938
20.2267 -8.79596 497.923
17.127 -5.70087 497.725
11.9724 -4.66956 497.642
18.7236 -27.933 499.078
18.7223 -27.4145 499.044
20.7337 -5.70082 497.72
18.212 -30.5248 499.216
-8.13774 -24.3006 498.754
20.223 -7.76363 497.834
-8.65563 -25.8542 498.845
-6.07703 -30.5197 499.134
-1.42665 -31.0392 499.178
2.18346 -3.63831 497.52
-7.62658 -30.0005 499.093
19.2269 -22.7505 498.732
1.1571 -30.5199 499.136
16.1454 -31.5598 499.238
13.0022 -5.18451 497.619
-7.60593 -8.27747 497.741
-8.13811 -25.3344 498.777
-8.65 -21.1926 498.52
19.7096 -9.31066 497.882
-7.62348 -27.406 498.89
18.2109 -31.0397 499.186
17.6894 -28.9649 499.053
19.7325 -19.126 498.46
-5.54176 -4.15293 497.468
-6.59291 -30.5158 499.069
-7.10858 -29.4784 499
18.7177 -26.8912 498.921
-7.60718 -10.3403 497.823
15.5766 -5.18405 497.576
19.2274 -24.3001 498.745
20.2292 -11.8903 497.985
20.2139 -5.69953 497.608
3.72818 -4.15287 497.461
20.2176 -7.2463 497.7
20.226 -10.8575 497.906
-7.60806 -11.8878 497.881
-5.02656 -4.66775 497.449
-7.6061 -9.82353 497.753
5.27332 -4.66801 497.477
-7.61133 -15.5024 498.095
-7.61227 -16.5358 498.157
-7.60745 -11.3714 497.841
14.0299 -5.18355 497.528
17.6926 -31.5538 499.144
-7.62274 -27.9198 498.841
20.2151 -6.73021 497.637
19.7084 -10.3409 497.853
18.2034 -28.9607 498.981
10.4234 -4.668 497.476
13.5144 -5.18339 497.513
1.66805 -4.15247 497.413
18.2019 -28.4418 498.941
19.703 -8.27706 497.717
-1.42614 -30.5116 499
18.6675 -6.21435 497.582
18.1522 -6.2143 497.578
-7.08898 -8.27553 497.625
-7.60507 -9.30698 497.685
19.7325 -20.6741 498.462
-7.60791 -12.403 497.871
19.7237 -17.0543 498.238
-0.909599 -31.0296 499.024
12.524 -31.5507 499.095
-1.94267 -30.5107 498.986
19.2137 -19.6392 498.388
4.2429 -4.66757 497.43
-7.60966 -14.468 497.986
18.1976 -26.8859 498.822
-7.60868 -13.4352 497.922
18.6985 -20.156 498.41
6.3023 -4.15232 497.395
19.7193 -15.5034 498.127
-7.6167 -22.2215 498.447
-7.6042 -8.79076 497.629
-6.5718 -6.21297 497.472
19.1886 -9.30798 497.738
2.69768 -4.15209 497.367
15.1068 -31.5494 499.073
-8.12523 -14.9836 497.988
-7.08743 -7.24362 497.516
17.6889 -31.0306 499.04
19.7019 -8.79183 497.689
19.2109 -19.1204 498.316
-7.10528 -27.9157 498.769
9.9076 -5.18261 497.437
-7.62204 -28.4336 498.796
18.7054 -23.7766 498.594
-7.61188 -17.5663 498.131
19.7251 -18.603 498.275
16.6036 -5.69805 497.479
-7.61277 -18.5998 498.189
0.638014 -3.63668 497.296
-7.62271 -29.4689 498.84
7.8468 -4.66708 497.378
19.2197 -23.2581 498.544
19.1954 -12.9195 497.914
19.2159 -21.7055 498.446
18.7079 -25.3284 498.659
-0.391662 -4.66672 497.339
10.4218 -5.18224 497.402
19.7116 -13.4354 497.932
-6.57138 -6.72754 497.44
3.21221 -4.15161 497.31
17.6861 -30.5091 498.959
-7.09522 -17.0483 498.063
12.0044 -31.0263 498.97
-1.93606 -4.15143 497.288
-7.60973 -16.0147 497.99
-7.09778 -20.1492 498.242
2.18244 -4.15142 497.287
-7.61232 -19.1144 498.16
-8.12999 -21.1824 498.28
-7.61656 -23.7691 498.437
-7.61837 -25.8393 498.556
19.2099 -20.1512 498.291
13.0371 -31.5421 498.958
18.6984 -22.2198 498.407
-6.56852 -4.15089 497.223
-7.09663 -19.6302 498.162
7.33067 -4.66631 497.295
16.0855 -5.69695 497.383
5.78613 -4.66624 497.288
-6.58919 -29.9822 498.788
-3.48004 -4.15089 497.223
-4.50978 -4.66589 497.251
-7.09471 -17.5626 498.027
-4.00763 -30.5006 498.821
18.1941 -27.9133 498.727
19.1759 -6.21217 497.407
-0.909229 -30.5006 498.821
19.1842 -9.82101 497.625
-7.09358 -16.5288 497.947
19.693 -7.24284 497.462
18.197 -29.4669 498.805
-6.58833 -29.462 498.723
19.7136 -16.0145 497.983
19.7098 -14.4651 497.887
-7.09285 -16.0117 497.896
-2.96508 -4.15058 497.187
15.054 -5.69632 497.328
19.7142 -16.5305 497.999
19.2022 -18.0805 498.089
18.1971 -29.9835 498.809
18.1913 -27.3929 498.651
19.6891 -6.21163 497.364
-7.09034 -13.4297 497.72
-7.60506 -12.9135 497.685
9.38931 -5.18077 497.261
4.75603 -5.18053 497.238
18.7045 -26.3561 498.569
13.5512 -31.5362 498.865
-7.08596 -8.78694 497.412
-6.56813 -5.18007 497.194
0.123165 -4.66526 497.183
-7.08682 -9.81802 497.473
-7.61282 -21.6944 498.193
-7.61705 -26.3508 498.469
-7.61945 -28.9401 498.626
-7.10146 -26.8685 498.5
18.6907 -20.6633 498.201
-6.56748 -4.6649 497.145
19.2015 -18.5955 498.072
8.89335 -23.2475 498.316
-0.392781 -31.0132 498.759
19.1853 -11.8823 497.652
14.0222 -5.6955 497.256
-7.60894 -18.075 497.939
-7.09391 -18.5917 497.971
11.4835 -31.0147 498.784
14.536 -5.18035 497.22
-5.55545 -30.4931 498.698
-7.6103 -19.625 498.028
15.5663 -5.69541 497.248
19.7011 -12.3979 497.666
19.6985 -11.366 497.602
-7.08653 -10.3326 497.452
19.7042 -13.9457 497.747
-7.60174 -10.8479 497.467
19.1874 -13.4294 497.707
11.4458 -4.66493 497.148
18.6909 -21.695 498.206
-7.08935 -13.943 497.651
19.6962 -10.8496 497.544
20.1996 -6.21028 497.256
19.7059 -14.9776 497.789
-4.52253 -30.4905 498.656
18.6974 -24.7983 498.38
19.1843 -12.3969 497.626
-7.60721 -17.0401 497.825
-6.07072 -29.9719 498.616
19.1915 -15.4936 497.812
-7.08777 -12.3947 497.539
-7.0904 -15.4909 497.724
-6.5672 -5.69398 497.123
-7.08668 -11.3628 497.463
18.6884 -21.1765 498.14
-7.61267 -23.2412 498.183
-5.53718 -4.66407 497.057
-7.08484 -9.30041 497.334
17.6723 -28.4208 498.572
-7.60394 -13.9419 497.611
18.6988 -25.832 498.416
-3.99343 -4.66404 497.054
17.6241 -6.20972 497.211
19.1744 -8.78619 497.37
19.2023 -20.6588 498.092
8.38318 -30.4905 498.655
19.6965 -11.8799 497.552
12.4745 -5.17931 497.121
18.1774 -23.7611 498.269
0.123521 -30.4884 498.621
-2.44948 -4.14906 497.004
9.41603 -31.008 498.676
-7.6141 -25.3089 498.276
18.6916 -23.2433 498.226
14.0634 -31.5267 498.714
14.5796 -31.5266 498.714
16.6439 -31.0087 498.688
-7.6091 -20.1374 497.949
10.9645 -31.0071 498.661
6.29782 -4.66393 497.041
-6.56802 -7.75352 497.186
15.0488 -6.20906 497.158
15.6107 -31.0074 498.667
-2.45704 -29.9673 498.54
-7.0852 -10.8455 497.359
-0.905907 -4.66352 496.998
-6.57069 -11.3611 497.388
19.1697 -7.75448 497.247
6.81204 -4.6637 497.017
19.178 -11.3628 497.462
17.16 -31.5246 498.682
-7.09442 -21.6863 498.006
17.1069 -6.20881 497.138
10.4474 -31.0045 498.62
3.72464 -4.66344 496.99
-3.47824 -4.66321 496.965
-1.42034 -4.66327 496.971
-7.0879 -14.4553 497.549
17.1581 -31.005 498.627
12.5119 -31.004 498.612
-7.09897 -27.375 498.326
0.637545 -4.14845 496.931
13.5021 -5.69323 497.058
19.1667 -7.23857 497.169
-4.50723 -5.17772 496.968
-7.09963 -28.4094 498.372
17.6701 -29.4495 498.51
-7.09421 -22.2012 497.991
-7.08525 -11.8754 497.363
4.23908 -5.17787 496.982
10.9273 -4.66327 496.971
17.6664 -27.8954 498.406
18.65 -6.72316 497.115
11.957 -5.17805 497
7.32603 -5.17785 496.98
1.15198 -4.66286 496.927
19.1824 -14.4561 497.578
-6.0495 -4.14795 496.872
19.1677 -8.26841 497.197
18.1664 -21.1691 497.967
10.9272 -5.17773 496.969
-6.56608 -7.23668 497.039
5.26773 -5.17753 496.95
-7.60233 -14.9691 497.506
18.6759 -18.5856 497.807
18.1339 -6.72264 497.077
19.1971 -21.1687 497.958
18.6779 -19.6184 497.86
-7.60744 -20.6483 497.84
-7.0907 -19.0985 497.745
14.5294 -5.69251 496.995
18.1644 -20.6513 497.912
19.1869 -17.0357 497.695
16.0738 -6.20735 497.022
18.1746 -25.3046 498.191
-5.55214 -29.9589 498.4
9.92895 -30.9976 498.509
-0.391315 -5.177 496.899
19.184 -16.0027 497.618
-7.61043 -24.2656 498.036
18.6722 -17.5513 497.707
-2.96308 -4.66214 496.851
-1.4244 -29.9584 498.392
19.1787 -13.9383 497.48
18.1761 -26.3383 498.232
-7.0947 -24.2651 498.026
8.86831 -5.17714 496.913
-7.09644 -26.3338 498.148
11.992 -30.4784 498.458
9.89771 -5.69189 496.941
15.0892 -30.9966 498.492
18.172 -24.7854 498.12
18.6723 -18.0667 497.712
1.66613 -4.66204 496.841
6.29567 -5.17672 496.872
18.6858 -24.2673 498.072
18.6822 -22.716 497.974
-7.09542 -25.8144 498.076
18.6734 -19.0984 497.741
19.1827 -16.5168 497.584
15.5568 -6.20639 496.944
-7.60988 -24.7794 498
19.1692 -10.8428 497.234
-7.09253 -22.7114 497.874
-1.93411 -4.66155 496.788
-1.9401 -29.9544 498.325
19.1675 -10.3271 497.19
18.1689 -24.2655 498.035
8.35264 -5.17637 496.839
-7.60767 -22.7106 497.855
19.1586 -6.72107 496.961
-6.05029 -7.74964 496.937
-6.0495 -6.71987 496.873
19.1776 -14.9674 497.453
-5.03535 -30.4699 498.319
7.8379 -5.17611 496.814
14.5265 -6.20579 496.897
-6.57329 -18.5772 497.584
-2.97162 -29.9519 498.283
-3.48743 -29.9516 498.279
-6.57927 -26.328 498.037
14.0113 -6.20546 496.87
-6.56671 -10.8396 497.086
17.6579 -27.3662 498.165
-6.56783 -12.3855 497.171
19.1818 -17.5462 497.561
16.1172 -30.9887 498.365
5.78001 -5.17557 496.762
-3.99083 -5.17525 496.731
-0.392396 -30.467 498.271
-7.08934 -20.6404 497.65
-7.09338 -25.2915 497.933
-5.01912 -5.17506 496.712
-6.56543 -9.80847 496.989
-7.08436 -14.9629 497.3
17.6623 -29.9522 498.288
